ncols 120
nrows 99
xllcorner 480000
yllcorner 760000
cellsize 12.5
NODATA_value -9999
248.396 248.785 252.560 251.400 251.985 252.238 251.885 252.083 254.466 253.431 256.215 254.950 255.209 255.197 255.712 256.158 258.242 259.486 255.508 257.413 258.133 256.333 256.771 257.063 254.761 258.464 257.608 257.504 257.635 257.725 260.071 257.326 257.910 256.045 256.836 255.744 255.628 254.381 254.123 255.271 255.215 254.447 252.642 253.375 249.469 253.176 251.502 251.374 251.944 249.523 250.673 248.477 249.152 247.500 247.856 248.745 245.732 245.310 245.195 245.510 248.033 243.623 241.478 242.786 241.328 242.247 242.653 241.218 241.319 239.687 241.980 240.719 242.815 242.693 240.335 240.920 241.447 242.343 239.500 241.539 257.532 258.606 262.925 267.124 270.641 278.605 283.521 289.369 296.122 302.212 304.770 313.001 316.499 321.417 323.493 325.432 328.667 327.460 326.000 323.850 321.242 317.303 310.042 306.970 302.606 298.570 294.161 286.452 285.268 278.805 254.967 254.144 254.446 257.266 255.617 256.073 257.880 258.822 255.182 256.964
249.081 251.737 252.981 250.411 251.371 252.407 253.185 251.841 253.667 252.193 250.198 252.121 254.386 255.396 252.043 252.872 255.268 251.478 256.424 257.181 252.510 257.150 256.098 258.110 256.789 256.179 256.599 257.543 256.573 256.294 254.383 256.546 255.821 257.790 255.329 254.983 254.053 255.374 253.934 252.988 255.401 255.237 252.154 251.057 253.226 250.431 254.394 250.384 251.253 248.075 249.136 250.036 248.791 247.161 250.315 247.809 246.211 245.337 245.330 246.888 243.950 244.556 243.183 245.359 243.347 244.301 243.687 242.069 243.405 243.511 240.839 242.942 246.286 241.564 242.650 240.254 242.435 241.213 242.921 242.034 254.323 260.477 262.811 266.284 272.516 276.623 283.972 289.356 295.022 302.252 305.643 313.690 314.821 323.168 324.520 326.052 326.476 327.924 325.885 323.665 322.025 316.371 312.123 308.006 303.603 296.851 292.024 286.888 283.046 279.657 252.358 253.692 254.142 255.240 256.649 255.090 255.627 256.976 254.302 255.060
248.140 249.082 249.774 249.264 252.418 249.820 250.813 252.750 252.730 252.122 252.931 253.788 253.082 254.171 252.535 253.983 252.127 253.243 253.122 256.191 254.243 255.281 253.880 254.821 254.764 254.074 256.146 253.038 255.760 258.145 253.792 254.690 252.590 254.269 251.977 254.626 253.008 251.085 251.468 250.803 252.067 253.117 251.238 249.921 249.962 250.740 247.230 250.519 249.893 245.991 250.027 246.174 247.502 248.803 244.961 244.310 244.817 244.486 245.279 244.454 244.152 243.848 243.910 242.799 243.979 243.325 241.854 245.129 241.153 243.452 241.501 242.744 242.856 243.209 243.859 241.076 245.625 242.660 241.234 240.657 258.832 261.362 263.230 268.600 274.179 278.014 283.044 289.425 296.496 301.430 305.595 313.310 314.954 320.078 325.545 326.337 327.275 326.961 326.858 323.278 317.786 316.547 307.943 304.209 303.432 297.441 290.343 285.771 281.231 278.014 251.431 251.618 252.232 253.459 253.880 253.321 254.965 252.984 254.328 253.734
246.850 249.940 248.391 247.893 249.518 248.575 250.865 251.497 252.024 249.768 251.176 253.895 251.632 253.694 254.246 250.894 254.271 253.887 254.198 255.335 253.945 253.575 254.304 253.186 254.251 251.184 255.764 252.958 254.217 253.861 253.508 253.399 253.202 250.953 252.115 254.054 251.121 250.849 254.491 253.115 253.274 251.052 251.097 251.389 250.823 249.697 247.674 248.227 246.931 250.357 247.586 247.504 247.724 247.049 247.333 245.585 244.153 247.841 244.511 244.499 243.817 243.841 244.273 244.914 242.480 243.906 242.531 244.642 241.511 242.997 243.626 240.997 242.713 242.701 241.515 242.212 243.693 242.817 242.067 242.393 256.809 261.174 264.476 268.785 274.666 276.180 281.945 286.794 296.523 298.627 307.004 313.205 315.234 320.002 323.460 326.628 324.794 326.805 325.969 322.990 319.790 317.121 311.280 305.951 300.283 296.098 289.655 285.693 280.239 277.091 250.322 251.643 252.236 252.560 253.657 252.981 253.793 255.244 254.055 251.903
245.786 248.605 247.635 248.728 248.455 250.519 250.664 248.131 250.078 249.639 248.667 251.253 250.520 251.433 254.072 252.870 252.765 251.095 250.297 253.336 251.569 252.069 251.627 252.245 255.046 251.782 251.812 252.367 252.420 250.570 249.797 251.130 251.456 250.631 250.222 250.129 250.602 250.736 248.712 249.790 250.642 249.823 248.086 249.028 249.164 249.833 246.677 249.163 247.497 248.004 248.286 246.129 245.914 246.455 247.175 245.370 244.052 244.642 245.674 246.351 244.111 244.097 244.050 243.895 242.728 243.153 243.774 243.490 243.260 241.913 242.360 242.082 244.128 244.563 243.207 244.695 242.448 242.482 241.324 243.213 255.998 259.999 264.328 267.821 271.611 278.159 283.727 289.675 296.366 301.158 306.705 314.276 318.081 320.522 322.444 324.940 326.760 327.043 327.556 322.040 319.243 314.595 310.462 304.824 298.665 295.720 289.301 285.524 278.565 275.039 251.011 248.234 249.117 251.784 251.207 249.090 250.558 250.338 251.146 253.669
246.326 249.647 247.180 246.842 249.801 249.294 250.029 250.917 250.085 250.478 247.186 248.435 250.115 250.002 250.772 249.499 251.516 252.714 251.124 251.518 251.209 251.777 250.983 250.169 251.024 250.927 248.980 251.048 250.765 250.929 249.966 251.109 251.184 249.497 250.599 251.009 250.821 248.688 248.398 249.463 248.002 252.013 247.877 247.681 249.171 247.622 245.167 247.541 246.306 246.616 245.082 245.684 246.322 246.187 244.723 244.963 244.576 245.532 244.975 243.466 245.510 243.733 244.842 243.127 244.407 243.767 243.840 244.251 244.066 243.648 243.566 241.801 243.172 240.623 240.541 242.818 242.931 244.988 244.043 244.620 256.528 260.748 265.439 269.025 273.631 278.566 282.922 288.745 293.987 301.977 306.738 311.402 317.164 319.840 324.630 327.514 326.569 324.894 322.535 324.271 319.091 313.062 311.017 302.623 298.675 293.430 287.872 281.743 281.048 273.247 249.630 249.403 247.639 249.053 250.109 251.111 249.727 250.693 249.963 251.158
243.539 247.371 246.094 246.319 243.799 246.087 248.249 250.432 247.003 247.207 248.724 248.622 247.714 248.339 248.200 249.503 249.812 251.053 250.131 249.904 249.357 250.337 248.085 251.859 249.640 250.995 248.356 250.519 249.741 249.002 248.378 248.065 251.193 250.423 249.014 249.010 247.801 246.359 246.287 247.568 247.970 246.608 248.809 248.315 247.729 245.266 246.943 246.991 245.343 244.061 248.792 247.066 245.686 247.885 247.130 246.166 245.733 246.234 246.896 245.074 244.568 245.402 241.194 244.552 243.842 244.200 243.901 244.436 244.077 243.962 243.662 244.317 243.124 244.884 241.670 243.928 244.232 242.181 243.217 245.361 257.185 259.592 260.885 269.180 273.675 279.481 286.737 290.025 296.027 300.807 307.075 312.206 317.637 321.119 322.355 324.506 327.454 324.267 324.852 323.425 318.871 314.230 310.795 304.378 298.484 292.709 288.863 283.060 279.140 272.346 247.780 247.772 248.763 247.722 249.780 249.184 247.699 245.410 246.856 250.844
245.926 246.294 245.725 246.824 244.161 244.179 244.727 246.879 247.748 247.575 246.951 245.659 248.240 247.029 247.421 247.429 247.022 246.776 246.988 246.194 248.083 247.609 249.064 245.687 249.279 247.790 247.677 246.895 246.862 246.024 248.863 247.487 248.558 248.637 246.984 247.231 247.031 248.599 247.441 247.397 247.967 246.913 249.356 245.684 248.194 248.264 245.095 247.386 246.571 247.162 244.557 246.173 244.588 245.249 247.236 245.257 242.605 243.520 243.726 246.211 244.057 242.932 246.052 244.929 244.961 243.519 246.124 244.204 241.929 242.885 243.200 243.984 245.069 243.261 243.401 246.764 244.221 243.499 244.191 242.675 258.374 262.181 264.109 270.293 273.493 279.351 283.609 289.250 294.207 301.990 306.857 311.938 315.326 318.950 322.357 325.428 325.893 324.275 323.925 323.144 317.714 315.794 309.060 304.876 297.128 293.573 285.219 281.620 275.935 269.352 245.468 248.557 247.876 248.925 247.683 244.038 247.887 246.963 247.096 247.207
244.578 244.404 247.105 246.209 244.946 245.280 247.011 246.353 246.183 244.528 245.526 244.732 243.838 247.253 245.825 245.759 245.135 247.225 248.855 247.069 247.502 244.909 246.627 246.687 248.219 246.444 245.298 246.345 245.894 248.137 247.183 246.774 246.557 247.327 245.695 245.148 243.956 247.598 246.739 246.857 246.090 247.985 244.761 247.330 244.818 245.232 244.257 245.767 245.251 246.057 244.777 243.748 246.041 246.846 246.126 245.120 245.614 243.036 244.619 246.362 245.472 243.848 245.856 244.627 245.624 243.020 244.045 245.037 244.983 245.260 244.563 244.322 245.113 245.575 242.715 244.145 244.288 244.728 245.761 242.968 258.737 259.291 264.227 268.762 273.784 278.505 284.080 289.961 295.799 299.592 305.547 311.696 317.239 321.426 326.348 324.758 324.299 324.957 323.979 320.734 315.795 312.663 307.847 300.894 295.561 292.782 283.108 280.605 275.049 272.377 246.758 245.044 247.625 245.493 248.578 248.215 246.177 247.226 246.550 245.277
246.248 245.487 245.995 246.258 246.669 246.219 244.880 245.091 245.480 244.845 244.708 247.207 245.574 247.249 244.076 244.944 244.476 244.529 244.650 244.848 244.477 247.140 245.799 244.110 244.347 245.882 245.644 244.272 246.096 243.295 244.436 247.050 241.900 244.756 246.172 244.826 244.070 243.941 242.525 243.423 245.077 244.322 244.983 244.820 245.337 243.026 244.632 244.596 244.628 243.943 242.394 245.748 245.965 247.814 245.865 246.950 245.706 244.547 245.587 243.612 245.287 244.869 243.745 246.451 246.328 245.548 245.969 246.957 244.842 243.394 243.869 245.830 245.275 243.236 246.573 245.259 246.922 246.348 244.489 245.120 257.655 260.778 265.165 270.345 276.069 278.478 285.795 290.643 296.048 303.286 306.900 313.910 316.213 319.079 323.747 322.737 323.616 324.253 322.841 319.864 314.266 310.690 307.947 302.602 295.125 290.935 285.229 280.775 273.593 271.515 244.676 246.760 246.142 243.834 244.670 245.382 246.253 243.389 244.445 245.784
245.112 243.227 243.351 244.877 243.084 244.527 245.288 244.158 240.885 245.437 245.361 245.633 244.922 241.843 245.507 244.190 244.868 243.526 243.397 243.383 245.552 243.957 243.373 242.077 244.163 243.613 243.788 244.787 244.482 243.634 243.905 243.774 244.548 244.543 243.915 242.757 244.826 244.932 242.617 244.405 243.525 241.421 244.032 245.273 243.316 243.401 245.521 243.040 243.288 244.092 245.276 245.341 244.017 244.336 244.870 244.355 243.841 243.621 245.834 244.770 248.506 245.874 244.273 245.216 245.661 245.765 245.856 245.894 245.214 246.180 248.038 244.912 244.996 246.309 246.957 246.446 246.922 245.402 245.176 246.221 259.749 264.171 267.752 267.908 275.681 279.014 282.678 291.262 296.260 301.632 305.844 311.061 316.304 318.284 322.543 324.389 324.567 324.495 322.359 318.335 314.863 311.863 307.851 301.439 294.969 289.999 281.946 277.444 273.031 268.665 243.562 243.580 242.439 243.131 244.074 241.537 242.269 243.259 245.421 244.433
245.871 245.487 243.228 243.564 242.127 244.824 244.179 243.907 243.887 243.543 243.144 243.131 244.162 241.687 241.301 242.483 243.801 242.640 242.054 243.250 242.347 239.908 240.951 239.636 241.862 241.587 242.651 244.663 241.443 242.191 241.759 238.894 241.392 241.497 242.745 241.482 241.013 243.339 242.641 241.738 241.995 242.640 244.079 244.905 241.753 244.820 243.605 244.087 244.933 242.738 245.035 242.566 243.687 243.346 246.493 246.551 245.609 245.428 244.283 247.100 246.788 246.288 245.169 244.971 245.366 247.127 244.479 245.809 247.674 246.828 247.893 246.344 246.389 247.546 246.688 246.325 245.305 244.137 247.663 245.367 258.465 263.595 265.201 268.826 274.389 280.024 285.772 291.615 297.788 302.040 307.899 312.180 315.789 320.489 322.978 326.287 325.237 323.028 322.811 319.032 317.520 309.166 305.341 299.849 295.029 288.907 281.429 275.575 272.801 269.531 244.679 242.388 243.318 241.663 240.899 243.993 243.276 242.018 241.918 243.401
243.945 242.989 243.546 243.026 242.382 241.847 243.624 241.809 240.814 244.197 243.388 242.392 241.563 241.747 239.683 241.266 241.513 240.861 241.531 240.040 241.099 238.980 240.762 240.038 239.178 240.269 240.767 240.056 241.879 240.000 241.975 241.789 240.286 242.768 239.563 241.895 241.452 242.390 239.769 240.342 240.904 242.049 242.275 242.353 242.186 241.825 241.213 242.491 243.791 244.539 242.925 244.957 242.279 244.958 242.939 244.673 243.428 243.574 244.230 246.692 244.386 246.039 245.624 245.921 246.051 246.530 244.481 246.033 246.472 245.448 246.611 245.044 247.132 245.485 245.997 247.260 247.593 245.643 245.532 247.403 256.334 264.473 268.089 269.471 276.720 280.745 286.170 288.431 296.159 302.008 306.991 311.816 316.120 316.500 322.122 323.014 324.107 322.901 321.667 319.172 317.180 309.615 307.442 299.622 293.052 286.519 283.433 275.054 272.650 267.143 241.183 240.927 242.147 241.633 242.206 241.224 240.524 241.667 239.548 241.879
243.066 241.454 241.338 241.919 239.932 243.483 242.762 240.120 241.065 242.992 241.276 239.420 237.898 238.340 241.522 240.346 238.296 240.556 239.185 238.732 238.824 238.826 241.300 238.169 238.789 240.836 241.047 238.126 241.772 240.682 237.681 241.664 237.861 240.529 238.475 237.860 241.128 240.775 240.342 240.844 240.680 240.689 239.928 242.102 241.650 241.555 241.395 241.966 240.728 242.399 241.830 244.765 242.338 243.167 243.951 245.104 244.928 244.614 247.375 244.987 245.586 248.639 244.504 246.876 246.413 244.462 245.420 247.273 244.661 246.260 247.671 246.343 246.996 245.918 245.993 246.011 246.318 247.466 246.768 248.973 260.737 263.580 269.573 270.889 274.630 280.738 284.534 291.926 298.482 303.071 307.017 312.083 316.966 321.152 321.710 323.109 325.226 323.409 321.689 318.965 313.668 309.841 306.103 299.040 293.131 287.786 282.038 278.966 269.668 265.907 243.208 240.661 240.896 238.546 241.283 241.017 240.825 239.512 240.062 239.448
243.521 242.200 242.861 240.044 240.959 237.675 240.617 241.444 239.957 242.813 238.588 239.136 238.218 238.513 238.359 236.982 237.408 240.844 237.980 239.263 236.562 237.856 238.570 237.680 237.246 237.624 237.891 238.877 239.367 236.421 235.622 237.944 238.294 239.276 239.843 237.942 241.372 239.414 237.207 240.679 240.096 240.350 238.361 240.158 240.978 240.880 242.164 243.129 243.738 243.704 242.328 244.847 243.400 244.397 243.373 242.280 241.514 244.710 243.941 244.993 246.309 243.650 243.591 246.210 246.530 245.948 245.812 244.687 246.617 245.950 247.450 248.146 246.416 247.622 247.374 247.997 248.982 247.914 247.927 247.964 246.426 246.827 247.131 248.064 247.981 248.983 244.791 245.851 243.633 244.832 243.281 246.392 245.649 243.206 244.619 244.824 245.737 244.366 243.238 242.687 243.250 242.574 241.349 240.175 242.604 240.204 240.466 241.474 240.193 241.360 238.427 240.443 237.729 237.316 237.670 238.875 237.764 236.775 239.721 237.024
241.869 241.958 240.740 241.394 241.359 240.163 241.197 238.928 238.060 239.266 237.579 238.908 238.074 237.389 238.408 238.142 233.771 236.747 237.136 237.414 236.061 235.244 236.686 237.297 233.992 234.645 235.748 233.390 235.824 237.595 235.440 236.994 235.907 237.631 238.080 239.058 237.803 239.202 238.671 237.887 240.493 238.303 239.522 242.557 240.990 239.296 240.968 240.295 241.129 239.849 242.260 240.491 243.138 243.487 244.393 246.383 242.065 242.937 243.483 244.299 246.320 245.140 245.104 244.701 245.529 245.972 246.568 245.156 246.938 247.846 247.703 245.891 248.442 248.477 247.906 246.089 245.785 247.563 246.229 245.783 248.355 248.261 247.799 248.440 247.774 245.110 247.657 246.196 246.335 247.422 245.797 246.865 244.746 243.909 243.199 243.555 241.365 242.966 242.550 241.707 239.322 239.073 242.147 239.807 242.259 239.423 240.382 237.897 238.554 238.754 239.425 240.471 239.347 236.203 237.721 237.298 236.539 237.831 238.860 236.280
242.841 242.770 239.417 242.420 241.921 239.862 241.177 239.055 239.776 238.826 236.674 237.704 236.884 236.205 235.146 235.345 234.574 237.213 233.311 235.596 234.631 233.752 236.035 234.143 236.512 234.835 235.463 234.945 235.945 236.380 234.826 235.492 237.775 235.158 238.227 235.809 235.861 234.772 236.066 235.297 237.022 238.874 238.319 238.030 237.893 238.681 238.150 238.767 243.028 241.383 240.400 242.711 244.109 241.943 242.974 241.985 241.959 245.902 248.719 244.068 243.340 247.315 247.185 246.773 248.237 246.312 247.278 248.101 246.960 248.069 247.348 248.293 248.029 245.522 248.045 246.232 246.913 245.900 248.812 247.351 247.168 248.991 248.186 246.891 244.446 247.506 246.148 245.761 246.793 244.851 245.188 246.018 245.289 243.505 245.615 244.868 245.369 242.641 242.564 243.167 242.027 241.261 240.569 239.928 239.114 238.733 239.614 238.388 236.700 238.108 239.698 239.021 234.676 235.785 237.464 236.379 236.141 235.695 235.737 234.287
242.422 239.295 239.916 241.472 240.485 238.735 238.302 237.174 236.881 236.800 238.306 235.823 236.674 236.187 235.855 234.754 235.710 234.791 234.508 233.644 231.484 234.800 234.732 233.156 233.503 234.044 232.555 234.607 234.685 234.953 235.165 231.954 235.028 234.089 236.176 236.371 236.364 235.596 239.360 236.304 235.486 238.270 235.783 240.213 239.555 240.360 240.469 240.154 238.557 239.874 241.721 241.269 242.410 241.610 241.935 243.669 244.628 244.174 243.416 242.994 247.760 244.358 245.021 245.517 247.750 246.066 247.875 247.808 246.304 248.033 246.544 247.934 249.105 248.014 247.253 247.852 248.112 248.687 245.486 245.917 248.562 247.681 247.648 247.678 246.994 246.389 246.773 247.129 246.414 245.688 244.062 245.198 243.148 243.313 243.866 243.395 244.112 243.411 242.491 241.069 240.978 240.246 242.133 240.168 238.403 237.730 239.772 236.847 237.905 237.285 237.957 235.293 236.535 235.902 236.304 236.689 234.941 234.320 235.417 232.526
240.726 238.826 238.048 237.100 236.512 238.963 238.532 237.150 237.797 236.165 235.118 234.020 235.826 235.518 235.710 232.953 233.278 231.753 234.476 233.756 233.351 232.582 232.315 231.978 233.656 231.598 233.418 232.753 231.302 230.892 231.823 232.879 231.597 234.104 234.971 234.556 232.220 231.780 235.960 237.082 235.246 236.764 236.266 236.287 238.694 237.345 239.501 241.037 239.354 242.235 238.964 242.128 241.559 245.106 242.606 242.104 245.466 242.181 244.988 243.994 246.972 245.610 247.140 246.435 245.506 244.566 249.553 247.961 246.541 247.746 249.472 246.658 251.256 248.330 248.237 250.225 248.925 247.429 249.640 248.970 249.634 247.012 246.563 248.423 246.893 244.548 246.108 247.218 245.236 247.247 244.709 244.770 242.501 243.028 243.288 243.720 242.759 243.305 238.922 241.044 240.327 238.737 239.426 238.076 238.981 237.560 238.098 235.930 238.084 236.598 237.834 235.130 234.305 234.706 233.644 232.642 233.618 233.260 232.326 232.441
238.832 239.608 237.259 240.350 237.799 238.352 235.243 236.582 235.505 236.358 235.758 232.295 235.220 231.645 234.677 232.656 230.963 232.963 231.903 230.440 230.552 231.858 229.511 230.034 233.247 230.076 231.464 231.610 232.317 232.342 228.402 231.049 233.283 231.162 234.597 233.020 231.596 234.123 236.186 233.457 235.386 234.114 234.962 236.309 237.310 237.648 238.020 241.223 237.569 237.193 240.681 240.797 239.399 243.774 241.397 241.084 243.828 244.613 247.188 242.974 243.756 245.411 245.638 246.478 246.084 245.404 247.064 248.751 249.105 247.580 249.218 249.225 248.251 248.512 249.046 252.393 249.190 247.861 248.656 248.051 249.948 245.760 246.827 248.902 248.116 247.326 247.818 244.962 246.614 244.366 243.745 245.438 243.380 243.410 244.084 241.527 242.990 244.424 240.900 241.744 240.951 237.913 237.229 238.334 235.190 237.288 237.018 236.754 236.228 236.815 234.326 235.922 234.504 234.102 232.900 233.904 231.512 233.020 233.238 230.846
238.370 237.991 238.249 238.131 238.153 238.800 237.890 235.686 234.334 232.811 234.767 233.908 232.478 232.181 231.832 228.465 231.182 231.334 230.507 229.121 230.261 230.615 232.086 231.089 230.465 229.662 228.118 229.232 228.237 229.908 231.500 231.687 231.758 230.963 232.456 231.267 229.595 232.549 232.864 231.162 233.122 231.303 234.226 236.825 235.135 238.096 237.367 236.791 236.141 239.825 240.337 238.337 240.243 242.710 241.058 243.037 240.765 242.580 245.132 243.342 243.537 244.084 245.778 244.757 246.943 248.136 249.666 247.631 250.359 249.324 248.581 249.654 251.003 251.071 250.229 249.218 250.323 249.516 249.362 249.338 251.057 247.185 248.304 246.791 248.857 248.811 248.728 246.244 246.305 246.713 245.515 245.139 244.494 244.037 243.002 243.098 240.194 240.860 239.147 240.042 238.645 239.570 239.836 236.191 236.150 236.906 237.678 236.301 235.351 234.212 233.237 233.754 233.434 232.585 231.276 229.657 230.226 230.488 229.255 230.813
237.308 237.999 238.133 238.039 236.697 237.228 234.419 233.588 235.257 232.297 232.625 230.188 233.150 232.189 229.969 228.354 230.405 230.089 230.871 231.440 229.253 228.518 228.350 228.168 226.811 227.361 228.362 226.539 227.043 230.256 228.150 230.159 230.784 229.767 231.099 230.250 229.817 231.184 231.870 232.432 232.898 232.882 235.218 234.286 234.635 236.885 235.194 237.046 239.491 238.449 240.753 239.392 239.751 240.828 240.997 241.880 242.408 244.516 244.624 244.462 244.361 249.660 246.048 248.451 245.779 246.716 249.460 246.995 247.332 248.817 248.230 248.942 249.626 250.593 249.828 249.983 251.204 251.251 249.016 247.062 247.896 250.177 248.047 247.469 247.440 249.529 247.273 246.311 245.451 244.474 248.671 244.674 244.332 243.175 244.235 241.109 239.370 240.342 240.785 242.445 238.963 237.352 237.455 236.130 235.476 235.895 235.516 233.755 235.283 233.295 232.975 231.691 232.259 231.840 231.705 229.514 230.888 229.101 229.605 230.123
240.390 237.310 235.805 236.610 237.222 234.666 237.328 231.466 234.924 233.905 233.250 230.343 232.454 231.723 231.349 229.132 228.712 230.207 228.740 227.601 226.789 227.916 225.805 228.028 227.453 225.366 227.812 228.784 227.743 225.991 227.062 229.047 226.748 228.188 230.386 229.058 229.135 231.282 232.757 231.824 230.301 230.546 232.802 231.556 234.290 236.161 232.533 236.224 237.533 237.196 239.035 239.877 241.251 243.951 241.766 240.974 241.490 241.887 244.877 245.041 245.781 246.020 248.245 248.141 248.513 246.900 247.732 246.907 248.020 249.197 247.850 248.757 252.128 249.573 248.045 248.376 249.758 250.817 249.578 250.579 249.710 247.742 250.057 247.936 250.403 247.010 247.114 246.157 245.989 246.334 244.991 246.065 244.534 245.301 242.818 243.628 242.838 240.515 243.059 241.111 239.230 237.621 237.055 236.245 236.103 233.706 234.476 233.026 235.136 233.438 233.942 234.244 231.408 232.765 230.315 230.187 227.881 228.765 230.072 228.660
237.638 237.345 235.693 235.025 233.362 235.713 234.983 232.834 230.671 231.352 233.443 228.812 229.240 228.745 229.780 226.816 228.243 226.547 226.766 225.429 227.277 225.835 225.550 227.471 226.495 228.904 226.586 226.251 226.419 229.758 228.153 226.561 227.591 226.925 228.735 227.753 228.150 229.858 231.494 231.458 231.927 231.700 229.384 232.771 233.414 235.022 237.222 236.758 234.481 237.367 237.809 239.718 239.527 238.036 239.990 241.421 240.043 243.062 243.538 245.830 245.016 244.999 246.167 246.875 248.529 246.658 245.508 251.963 249.884 249.314 252.457 248.346 248.935 249.479 250.676 249.548 251.030 249.583 251.468 250.290 247.500 249.217 247.568 248.442 248.222 250.521 247.047 244.871 246.425 244.309 247.351 245.363 245.762 242.687 241.206 242.120 239.362 239.121 238.625 238.619 236.183 234.768 238.272 235.119 234.819 235.042 234.141 232.112 231.693 233.556 232.498 231.280 231.833 226.967 228.931 227.968 225.535 227.915 227.948 227.178
235.349 236.496 236.227 234.885 234.742 234.242 234.618 232.435 234.660 231.017 230.441 230.415 228.773 227.901 229.287 224.664 224.665 228.968 226.966 226.410 225.850 225.601 223.923 224.609 223.628 226.270 225.664 225.254 225.563 225.099 224.076 227.844 226.871 226.227 227.571 228.853 229.232 229.127 229.894 229.203 231.771 231.939 232.629 230.588 233.700 234.483 235.413 232.029 233.707 237.133 236.427 238.858 239.066 241.021 240.057 240.203 242.901 242.651 242.259 241.955 248.908 245.234 245.978 244.426 246.114 247.659 248.706 249.667 248.151 249.982 251.076 249.251 249.970 247.960 249.248 248.577 251.078 249.954 252.013 250.112 250.643 250.021 249.320 247.385 250.340 247.738 245.089 246.119 244.904 247.121 246.330 246.266 246.388 242.171 239.904 240.323 241.225 236.589 238.404 239.398 236.498 236.605 234.832 237.336 236.808 232.359 231.819 232.302 232.297 231.287 230.916 230.712 230.401 230.685 228.059 226.773 226.826 229.296 227.209 226.742
238.867 237.893 238.462 233.689 234.126 234.008 233.298 231.021 228.726 229.685 228.464 228.528 229.401 228.305 225.446 225.418 226.120 226.869 224.984 225.000 222.548 223.587 223.020 224.120 223.448 222.658 222.417 224.106 223.156 225.565 224.568 224.326 226.122 223.877 226.931 225.364 227.679 226.478 226.737 226.246 229.258 230.499 228.877 233.575 232.114 231.518 236.165 234.041 237.195 232.703 239.732 238.126 238.719 239.954 238.935 242.331 242.516 243.139 242.780 242.762 245.351 246.586 246.369 246.541 246.697 248.747 250.133 248.568 248.080 252.530 247.827 250.311 250.046 251.931 250.213 248.349 248.976 250.439 250.144 249.168 249.060 247.535 247.301 247.976 247.474 247.680 245.881 248.722 244.022 246.640 245.584 246.173 245.204 241.114 242.418 242.134 241.553 240.206 238.036 239.503 236.923 235.628 235.626 234.016 232.923 233.093 235.403 231.781 230.737 229.360 229.653 227.099 228.527 227.666 226.887 226.850 225.547 226.183 225.645 225.337
236.590 236.794 234.608 235.551 232.970 233.837 231.751 230.594 228.610 229.870 228.809 227.731 227.516 226.556 224.683 223.826 225.557 224.556 225.807 226.063 224.307 223.831 223.549 222.843 221.846 219.368 223.573 223.439 222.895 223.205 224.485 224.717 224.175 224.031 225.524 226.263 228.536 225.279 227.632 226.594 227.813 231.989 229.345 230.484 230.734 233.333 232.597 231.921 235.013 236.731 236.560 237.661 237.482 238.051 240.069 239.507 241.187 241.316 243.027 245.051 244.754 246.888 246.598 246.606 246.229 248.009 246.943 249.756 247.562 247.851 248.809 248.043 250.428 249.480 249.946 251.305 247.790 250.125 250.731 251.359 250.019 248.731 250.359 249.952 251.092 250.521 247.077 248.440 246.388 244.215 245.646 245.661 240.396 244.151 240.681 242.859 240.324 239.361 240.029 237.022 239.131 234.489 234.058 232.590 233.735 232.137 232.382 231.939 230.784 230.377 229.662 227.516 226.049 225.126 226.673 224.556 223.519 223.229 223.594 223.794
235.703 233.831 234.849 230.529 231.980 232.773 230.957 231.251 229.098 228.892 227.473 226.166 226.472 226.552 222.325 223.183 221.085 222.043 221.192 221.812 221.724 223.006 223.142 220.492 220.784 222.128 220.597 220.975 219.340 222.709 222.390 221.198 221.116 221.849 224.159 223.540 223.197 224.900 227.003 228.175 229.012 228.287 229.244 230.106 231.408 232.178 231.153 232.326 233.659 235.909 235.333 235.931 239.035 240.477 238.470 240.292 242.736 241.672 244.102 242.030 244.252 246.049 247.805 247.741 245.198 245.862 247.191 249.734 250.027 250.827 250.653 249.361 249.799 249.314 251.508 248.974 250.566 250.704 251.766 249.124 250.293 248.269 250.387 248.271 247.874 246.571 246.432 245.777 245.176 246.654 243.306 244.055 243.994 240.769 238.688 241.030 237.560 237.735 237.661 237.205 235.629 234.182 235.343 233.501 234.682 230.355 230.485 229.704 229.601 228.437 227.429 229.066 225.796 225.882 224.970 223.437 224.573 220.929 224.179 220.529
235.079 234.637 232.971 231.999 233.167 233.712 231.176 229.233 227.427 226.439 228.064 226.930 226.736 225.681 225.447 222.520 221.759 221.001 221.769 221.192 221.239 219.375 220.841 221.463 220.488 217.086 220.365 220.048 221.744 220.643 221.871 220.954 222.196 223.410 222.384 223.621 224.024 225.196 224.980 226.413 224.368 227.089 229.188 229.842 228.733 229.824 232.183 233.063 234.126 234.586 235.586 237.657 236.222 236.613 240.430 239.198 241.842 241.064 241.395 245.406 244.242 243.376 245.520 246.247 246.826 247.859 246.802 248.329 249.644 250.223 249.901 249.096 247.893 252.179 249.159 249.992 250.524 250.955 250.240 249.080 249.751 251.973 252.115 248.408 248.967 245.552 247.333 247.309 245.419 247.262 245.377 244.278 239.576 241.141 241.866 239.527 237.090 237.587 239.177 237.221 236.499 234.743 235.509 229.258 230.267 233.105 231.170 229.327 227.778 225.193 226.076 225.671 224.017 226.116 225.075 222.912 223.805 222.186 222.133 220.852
237.953 232.185 232.841 233.294 232.328 228.196 228.090 228.215 226.495 225.810 225.503 224.846 225.627 221.557 224.233 222.086 222.513 220.892 223.699 218.309 221.576 219.339 219.385 221.222 219.176 220.480 221.172 218.797 222.107 221.404 219.893 220.761 220.023 221.682 222.878 223.590 223.251 223.004 223.542 223.901 225.492 227.364 226.780 227.533 227.978 230.862 230.801 230.117 234.371 235.286 235.012 235.544 236.900 236.796 240.074 241.474 241.965 241.913 242.779 243.981 246.206 243.967 245.637 245.524 245.541 248.000 249.511 247.375 250.279 250.289 250.373 251.722 249.508 252.394 250.114 251.228 248.689 251.623 250.333 249.406 248.574 249.721 250.685 249.281 247.735 246.673 245.734 245.949 243.723 244.463 245.457 243.257 242.300 240.891 241.570 240.550 240.558 237.054 235.586 235.219 233.489 233.926 232.492 231.008 231.026 231.351 230.083 227.568 227.492 226.983 226.591 224.607 222.740 224.007 221.780 221.901 221.471 222.401 220.285 220.657
234.198 232.789 233.499 230.894 231.038 229.842 226.330 225.647 222.945 226.214 225.338 223.603 222.848 222.380 221.341 221.433 220.869 219.332 221.650 220.754 218.715 221.524 221.641 220.034 219.885 217.724 218.078 216.657 218.208 220.100 218.721 217.542 221.875 222.770 222.740 219.660 223.103 221.783 223.324 225.085 226.881 225.126 226.326 226.125 228.576 228.344 229.887 232.379 232.446 233.609 234.809 236.444 238.148 236.078 236.526 240.049 241.213 242.976 243.143 245.150 244.517 243.932 246.660 245.092 246.005 247.940 247.708 249.653 248.536 251.587 248.497 250.859 249.672 252.091 249.792 251.438 246.673 249.504 252.227 250.250 249.840 250.466 251.902 247.218 247.933 246.912 247.696 245.331 243.586 242.877 244.716 243.340 243.256 239.392 239.310 238.793 239.508 238.037 236.299 234.290 234.725 232.916 233.558 233.598 230.653 228.191 231.467 228.438 227.422 226.047 225.284 224.393 223.841 221.005 221.287 221.422 221.143 220.690 220.515 217.398
232.842 232.170 232.107 230.695 232.307 228.468 227.662 225.138 228.286 225.296 224.205 222.750 222.857 221.600 222.805 219.733 219.604 218.960 219.843 219.122 219.560 218.739 218.549 217.766 218.695 218.155 218.005 215.768 217.299 217.257 216.184 220.301 220.882 220.913 220.819 222.502 219.319 223.558 220.310 223.718 224.484 225.814 226.872 227.862 227.107 228.107 228.910 231.076 231.527 231.051 235.157 233.658 235.469 236.185 237.188 239.777 239.215 239.268 241.120 241.564 241.809 245.575 246.639 244.244 248.550 249.501 246.207 248.907 248.536 250.281 246.094 250.669 249.702 250.880 251.469 247.592 250.343 250.302 250.869 251.288 250.543 248.353 249.725 247.492 248.804 247.088 246.448 246.142 243.333 244.091 242.222 243.921 243.444 239.256 237.348 239.363 237.395 235.953 238.804 234.525 232.756 232.626 232.277 232.805 230.273 227.406 227.349 229.205 223.979 225.125 225.745 223.836 222.481 220.944 221.518 221.323 220.381 220.821 219.365 220.266
233.671 233.542 231.006 232.451 230.836 229.144 226.130 226.580 221.876 224.066 223.828 221.754 222.197 222.060 222.740 219.936 217.438 215.961 218.110 218.972 218.883 217.358 216.214 215.997 216.576 216.822 217.466 216.991 219.428 217.432 218.133 219.154 219.457 218.019 217.384 218.362 221.021 221.989 222.436 223.767 225.210 223.600 228.511 229.579 228.265 228.131 229.662 228.695 231.461 231.500 233.421 234.207 238.128 235.651 238.090 238.243 241.631 241.972 239.798 241.359 243.751 243.505 245.583 245.887 245.188 246.774 248.302 248.178 248.912 249.614 249.376 251.440 248.525 250.779 249.687 250.832 251.329 250.981 250.861 250.735 250.165 248.889 249.631 249.440 248.775 247.476 246.829 243.399 244.060 244.010 244.621 243.983 241.804 239.337 240.307 239.916 238.633 235.842 234.341 233.504 232.236 233.681 231.801 232.983 231.338 229.555 226.521 227.173 225.977 222.833 222.122 221.929 223.543 220.805 218.910 220.034 220.061 217.337 220.623 216.996
234.297 232.771 229.990 229.669 228.781 227.296 227.624 225.796 222.675 223.953 221.565 221.819 221.575 220.398 221.052 219.070 217.929 220.003 218.410 216.932 216.741 215.944 216.294 214.864 218.054 217.380 213.214 214.864 216.135 215.644 214.153 217.929 216.079 218.830 219.102 220.994 218.737 222.729 219.803 223.906 224.231 224.362 223.446 227.670 227.681 225.707 225.611 228.998 229.821 232.793 233.175 234.468 234.535 237.366 236.574 236.471 236.402 240.930 240.519 240.105 242.006 243.446 245.566 242.911 245.706 247.758 248.043 249.011 250.906 247.902 248.577 250.912 251.809 250.435 249.740 248.762 250.886 250.458 248.571 249.002 248.148 249.680 248.370 249.564 249.149 247.310 247.697 246.814 246.605 243.414 243.905 244.494 242.134 239.877 239.696 241.162 236.888 235.551 236.349 233.729 231.208 230.118 230.981 229.141 230.632 227.094 225.125 224.883 223.365 225.362 222.101 224.029 222.084 223.107 219.801 220.296 216.123 217.547 216.724 218.605
232.463 232.348 229.570 227.795 228.197 228.840 226.163 227.137 223.849 222.880 221.977 221.230 219.885 219.661 218.243 217.304 219.799 218.460 216.529 215.725 214.185 216.503 214.728 217.726 213.158 215.658 216.757 214.730 218.027 217.019 217.306 215.422 218.157 218.632 218.125 220.767 219.661 217.213 221.162 223.700 221.692 224.244 223.497 225.244 222.944 225.068 227.957 228.680 228.185 232.407 233.065 232.652 232.287 236.590 236.347 238.885 240.401 239.592 240.702 242.847 242.501 241.257 245.225 245.635 245.265 247.265 246.771 247.288 249.250 247.023 247.092 249.184 247.993 250.830 248.967 247.791 249.380 247.042 251.268 249.323 249.886 249.318 248.495 246.480 248.158 246.178 244.980 242.702 245.985 243.312 242.233 239.504 242.035 239.785 240.151 237.846 235.804 236.470 232.781 231.715 232.434 232.334 231.699 229.147 228.050 227.394 225.865 224.502 224.750 222.586 222.034 222.893 220.885 219.211 219.969 218.279 218.661 216.232 215.843 214.613
233.381 232.616 231.254 229.147 227.877 226.286 226.241 224.290 222.298 223.787 222.750 221.425 219.876 218.711 218.555 218.017 215.728 216.027 214.795 216.980 213.625 213.489 213.638 214.725 213.306 216.509 215.309 211.634 214.970 215.360 213.721 215.512 216.162 215.788 217.000 218.150 217.800 219.075 218.484 221.519 220.868 224.016 225.989 226.509 224.943 227.062 227.290 229.239 228.775 229.653 231.918 232.118 235.665 236.152 236.763 237.242 238.256 240.647 240.553 241.431 244.587 243.379 243.724 244.546 247.090 245.632 246.276 248.736 249.321 250.058 247.701 249.572 248.600 249.961 247.658 249.358 250.866 249.706 246.380 250.249 249.178 248.036 247.921 247.034 248.251 246.199 243.631 243.802 246.017 244.579 243.311 240.480 241.136 240.741 238.604 238.326 237.756 236.558 234.765 233.678 230.523 230.553 230.812 230.772 227.856 227.885 225.550 223.354 224.059 223.138 220.594 219.753 220.024 218.570 219.061 216.138 218.139 215.849 216.516 213.770
232.649 230.648 231.837 226.188 224.895 226.894 226.055 221.800 223.599 223.123 222.770 220.350 217.491 216.226 220.352 217.634 217.701 215.557 215.159 214.743 213.487 213.954 212.717 213.384 215.124 213.776 212.965 215.973 215.638 214.359 212.514 216.560 217.022 215.238 218.241 216.142 217.507 218.012 219.579 220.029 222.808 221.580 223.499 224.013 225.280 225.038 227.064 229.870 230.297 228.996 231.039 231.427 232.884 234.078 234.469 237.581 239.166 239.282 239.517 241.246 241.057 244.118 246.521 241.257 245.691 245.970 246.775 246.773 245.801 247.961 247.950 248.567 248.934 248.560 252.030 247.800 248.799 247.622 248.793 250.611 248.377 247.047 246.006 247.755 245.673 246.661 244.379 243.838 243.617 240.878 243.415 239.665 240.262 239.628 240.901 237.583 236.950 234.235 233.575 232.622 232.801 229.206 229.777 231.630 225.938 223.807 224.347 223.790 224.960 222.581 222.450 219.334 219.308 218.918 216.810 217.487 216.179 216.224 213.759 212.543
232.679 229.965 228.681 230.793 227.813 226.055 223.667 223.880 222.715 221.162 222.259 220.563 219.498 217.038 216.449 217.928 216.242 214.725 215.266 214.473 213.541 213.534 214.415 213.731 212.190 212.301 213.576 212.071 213.656 213.598 212.498 211.558 213.871 215.370 215.950 218.092 217.279 217.927 219.252 219.124 222.601 220.771 221.398 222.825 225.911 224.837 225.682 228.395 230.213 229.416 231.876 231.374 234.957 233.102 235.157 236.050 236.508 238.556 240.457 239.625 243.832 242.731 243.680 243.144 244.734 246.568 244.929 245.874 246.217 246.088 248.794 247.386 250.571 247.267 248.464 248.964 247.683 246.201 247.809 248.317 246.890 247.969 244.972 247.048 248.628 246.643 245.993 243.627 242.748 243.767 241.127 241.369 238.454 239.088 237.804 233.869 235.314 235.038 233.895 232.572 232.545 229.800 227.841 228.740 229.101 225.062 226.234 223.169 220.594 220.336 219.446 220.993 218.875 217.293 217.364 218.205 215.794 214.449 215.236 213.355
231.109 230.566 228.474 226.616 226.176 223.244 225.774 225.691 221.865 218.389 219.123 217.306 215.941 217.228 216.453 215.200 216.654 214.793 213.059 214.288 211.886 212.666 211.842 213.022 212.235 211.825 212.878 213.233 213.136 214.433 212.145 214.266 216.251 214.763 212.663 217.129 216.407 218.177 218.528 219.789 221.406 221.025 222.790 221.283 222.810 224.799 227.934 226.135 227.828 230.173 229.867 230.066 230.384 234.815 233.609 236.471 237.734 236.950 239.695 237.553 240.927 240.700 243.077 243.838 244.564 245.785 244.901 244.504 245.266 248.406 246.336 247.483 248.577 248.136 247.241 245.926 249.564 247.630 246.189 247.128 247.646 244.839 246.922 246.252 246.211 245.047 243.142 241.631 242.554 241.316 242.895 239.769 239.636 238.206 234.992 236.946 234.396 232.107 233.227 233.093 230.334 229.008 227.452 226.592 227.341 225.019 224.364 223.512 218.296 221.040 220.592 219.283 216.383 216.426 217.433 216.427 215.827 213.346 214.533 215.490
230.020 230.456 228.751 227.585 224.686 223.628 222.536 223.679 222.793 219.080 217.849 218.645 219.213 217.172 216.858 215.984 215.461 214.034 214.256 214.051 212.719 214.541 211.018 211.649 210.995 213.243 213.302 211.216 212.376 211.993 211.218 212.267 214.075 214.866 213.896 215.401 217.079 218.492 218.060 217.525 217.510 220.404 220.928 221.610 222.522 223.739 225.678 227.403 226.743 231.057 231.665 230.810 232.597 235.154 233.365 234.806 235.877 236.440 239.500 239.365 240.677 241.552 242.065 244.903 243.654 243.526 243.542 244.949 246.492 246.923 247.444 246.923 248.185 248.386 246.523 248.460 248.446 247.522 248.972 247.492 246.214 247.846 248.382 244.395 245.106 245.603 244.588 244.323 243.874 239.343 241.395 237.709 237.542 236.366 237.190 233.581 234.588 231.566 234.619 230.491 229.970 227.457 227.046 228.178 225.805 223.044 222.763 222.135 223.404 220.203 219.928 219.770 220.507 217.638 214.845 214.245 216.823 214.703 211.409 212.642
228.941 227.951 228.003 226.922 226.617 221.677 223.223 221.591 219.560 220.863 217.337 216.372 219.119 216.877 216.624 216.521 212.784 215.381 213.353 213.425 213.367 212.850 211.384 211.647 211.755 212.789 208.913 213.365 210.729 214.703 212.986 214.897 212.968 215.833 214.835 215.467 216.206 213.414 215.424 216.103 219.044 219.609 221.837 222.278 224.382 223.106 225.460 225.536 225.851 226.243 229.383 229.513 231.105 231.705 232.641 238.441 236.157 235.562 237.910 239.139 238.275 242.214 240.667 243.209 242.765 243.034 248.540 244.472 243.882 245.538 245.343 248.175 247.633 245.848 249.520 247.144 245.800 248.598 247.894 245.626 245.169 245.964 244.891 245.857 244.960 242.539 241.975 242.240 243.319 240.121 240.731 238.287 238.625 236.397 236.564 233.907 232.996 235.148 232.806 229.038 230.855 228.092 228.815 224.427 224.832 223.344 221.951 220.353 223.122 219.783 218.473 215.954 218.484 217.693 215.375 213.219 214.951 213.683 211.398 215.264
229.824 226.609 225.711 226.542 225.943 224.139 223.000 220.882 222.866 219.045 218.730 218.038 216.391 216.886 217.084 211.804 213.624 214.838 214.514 211.788 212.796 211.896 211.598 210.479 212.363 212.567 213.087 211.575 211.596 213.053 216.033 212.096 212.720 215.484 212.534 211.464 216.435 217.683 218.395 218.851 219.854 218.607 221.693 220.209 220.546 223.237 223.019 224.343 226.002 227.402 229.207 228.909 230.542 232.189 233.666 235.129 236.547 236.921 238.195 239.429 239.524 240.655 240.169 242.352 244.008 242.706 245.735 244.083 246.527 247.704 246.324 245.886 247.152 246.299 245.785 248.191 244.557 247.881 245.660 247.492 245.427 247.884 244.608 241.975 247.689 243.537 242.654 242.052 240.878 240.784 238.613 241.257 236.788 237.421 237.234 234.273 234.524 231.707 230.042 229.159 230.332 229.164 225.660 226.893 223.453 223.696 223.267 218.876 221.137 219.044 216.678 218.417 217.094 216.381 214.864 213.690 212.271 213.020 211.507 211.798
228.974 228.335 226.769 225.495 223.725 224.137 223.364 220.310 219.383 217.761 217.667 216.615 218.687 217.170 213.130 215.037 213.175 210.781 212.699 211.118 211.942 211.889 210.219 212.656 210.898 209.743 208.744 213.542 210.036 211.332 211.911 213.025 210.741 209.926 213.586 212.265 214.423 218.012 215.567 217.948 216.653 222.566 219.432 221.371 221.741 222.219 225.334 224.839 225.101 226.674 228.069 229.668 230.829 230.766 232.224 236.439 234.647 237.638 236.435 238.364 238.087 237.315 239.888 242.417 243.628 244.075 242.714 243.555 243.059 245.232 246.269 245.858 244.915 246.488 246.223 246.727 245.884 246.251 244.949 244.568 242.185 245.162 244.656 242.781 245.270 244.253 244.180 241.212 240.257 240.136 239.988 239.777 235.807 235.777 232.484 233.590 233.954 232.592 233.533 230.376 227.910 226.388 226.524 227.120 222.474 221.767 221.985 220.447 220.961 218.339 218.039 217.088 216.528 217.147 213.150 211.930 211.597 212.497 212.488 212.558
228.316 226.986 223.547 223.826 224.079 220.976 220.857 219.903 220.048 217.420 215.532 216.256 215.523 216.113 213.625 213.400 212.427 211.909 214.533 208.451 211.904 209.899 210.725 208.575 210.597 209.328 211.039 212.124 209.101 208.907 212.583 213.943 212.006 209.965 211.149 214.851 216.509 214.938 214.222 218.114 215.914 217.657 218.673 219.646 222.108 221.300 223.731 225.960 227.054 228.471 227.471 226.944 230.367 231.506 232.661 232.897 234.970 234.172 237.414 239.532 238.453 239.229 240.772 241.449 242.208 242.437 242.468 245.297 242.414 245.689 243.644 245.581 244.076 243.523 244.251 244.362 247.140 244.669 244.373 243.793 244.639 244.272 244.544 242.510 241.325 242.091 242.552 241.669 238.773 238.541 238.679 236.653 234.698 235.658 233.972 233.725 233.336 230.626 228.750 228.107 228.869 226.941 226.666 224.208 224.450 221.904 220.672 220.427 219.301 218.208 217.647 217.871 215.064 212.971 214.872 215.980 214.348 211.057 212.556 212.921
228.528 228.562 226.293 220.796 223.815 221.132 219.916 217.954 217.507 217.673 218.550 217.745 216.344 216.270 213.559 212.351 215.083 212.770 211.279 212.188 209.997 212.525 208.770 209.536 209.865 209.816 208.565 211.243 211.125 210.676 211.617 210.718 212.899 211.516 211.469 213.169 213.816 215.210 216.378 218.440 215.617 216.201 219.433 221.658 222.327 221.976 222.867 223.872 227.465 226.147 227.886 227.099 230.796 230.599 231.507 232.515 233.748 238.201 236.630 237.632 236.812 236.884 236.810 239.478 241.118 241.863 240.434 243.543 242.571 245.055 243.746 244.417 243.715 243.943 244.922 245.609 245.751 243.921 243.104 244.881 245.616 243.101 242.746 242.230 242.617 242.753 239.798 240.732 241.169 239.338 236.831 235.106 235.962 236.577 234.909 234.657 231.434 230.885 228.760 229.311 227.322 225.518 224.915 224.983 224.296 223.136 223.970 221.077 218.093 219.558 216.337 215.179 216.547 214.206 214.199 212.915 212.683 210.275 212.939 212.898
226.807 227.521 225.988 225.333 224.624 220.345 221.783 219.646 219.774 217.622 219.529 218.197 215.385 215.174 214.207 213.579 213.785 210.957 209.928 212.553 211.258 210.001 209.498 208.362 209.703 207.932 210.203 210.473 209.491 211.745 211.732 211.421 210.709 211.305 211.500 210.880 213.894 215.466 213.521 216.577 216.696 218.015 219.665 220.865 219.922 222.648 222.277 220.744 227.336 225.999 226.641 229.719 229.719 229.553 231.534 232.703 233.080 231.440 235.446 235.054 235.815 237.982 241.328 238.048 240.574 239.073 239.522 241.568 243.608 243.264 243.629 245.064 244.413 243.284 242.942 243.756 244.515 243.594 243.533 242.909 242.315 241.474 241.535 244.156 242.759 242.526 240.339 239.338 239.708 237.465 238.449 236.341 236.214 233.361 235.507 232.551 232.073 229.319 228.325 228.932 225.030 227.437 224.148 224.968 221.963 221.666 220.811 220.828 217.732 218.505 217.304 217.033 214.283 214.536 212.933 212.702 213.850 213.441 210.399 210.898
226.422 224.311 223.931 222.068 223.001 220.167 222.025 216.985 219.098 218.231 215.840 213.742 215.209 212.773 214.861 213.032 212.288 211.901 212.193 210.841 211.169 210.654 209.358 211.145 211.640 211.017 209.862 210.633 208.700 209.221 209.446 210.160 212.277 210.768 211.528 211.074 212.701 212.230 216.040 215.574 217.707 219.103 218.939 219.719 220.446 220.768 219.697 223.543 223.532 224.230 225.780 227.499 229.407 228.437 229.147 232.952 233.320 234.580 234.243 233.818 237.931 238.669 237.261 239.218 240.727 243.039 242.107 241.871 241.434 241.570 242.401 241.979 243.760 243.339 242.993 242.103 243.410 242.780 243.480 241.659 243.301 242.000 244.006 240.332 243.057 243.585 239.448 241.230 239.412 235.820 235.773 236.786 235.040 234.782 233.285 233.528 230.487 228.482 227.904 227.616 225.513 225.501 224.233 223.067 222.358 220.931 221.581 219.551 219.409 215.866 216.742 215.306 212.753 216.769 212.064 213.969 213.293 213.238 210.854 207.910
226.839 224.932 224.814 222.822 223.544 221.632 219.624 221.967 217.467 214.677 216.578 216.195 215.529 213.476 213.418 211.799 211.726 212.491 210.606 211.675 210.173 210.284 209.567 211.158 209.831 208.723 209.840 211.199 210.263 208.911 209.555 209.572 212.835 211.895 213.245 213.764 213.022 215.406 214.684 215.978 213.994 217.133 217.640 218.132 220.234 219.443 221.624 219.898 223.690 224.152 228.081 227.266 228.781 225.591 229.571 229.686 233.620 234.152 234.062 235.001 235.781 236.405 238.020 238.680 238.476 238.421 241.802 239.886 240.000 244.057 241.763 241.748 240.537 241.080 244.065 242.075 243.812 241.053 243.170 242.152 241.202 239.233 242.553 240.652 239.941 240.454 237.563 239.786 238.332 237.265 236.505 234.139 233.847 233.660 231.573 232.835 231.207 230.883 226.396 229.014 225.547 224.185 223.723 224.747 222.594 221.533 221.320 220.425 219.590 218.450 216.836 216.270 213.248 213.960 210.827 212.708 212.359 210.805 210.613 212.084
225.192 224.623 225.870 222.989 222.714 221.182 220.372 220.121 217.606 217.891 215.583 214.869 215.338 213.152 210.094 212.313 213.555 210.304 211.740 210.195 208.487 209.624 207.055 211.035 209.054 209.930 209.502 207.833 209.281 211.374 211.211 210.143 210.126 211.351 210.409 212.817 211.189 212.907 215.510 215.261 215.281 217.064 217.443 218.953 220.866 220.410 219.482 222.983 222.526 225.840 226.649 226.476 228.043 226.762 227.417 230.038 231.800 233.927 232.424 232.990 233.910 234.833 236.680 235.495 238.750 236.912 241.711 239.393 240.117 238.446 241.090 238.769 242.244 240.646 241.795 242.134 242.604 243.001 242.582 241.910 240.024 239.063 240.888 239.939 238.422 238.406 238.964 238.258 235.764 234.166 232.656 233.545 232.851 230.758 232.657 232.694 228.579 229.377 227.373 227.183 225.707 224.398 224.609 223.328 221.028 221.123 218.891 218.631 218.497 217.465 214.247 215.978 213.116 214.078 213.983 210.765 210.701 212.418 211.370 208.144
226.141 223.304 221.668 222.392 220.385 220.240 219.577 221.239 218.594 216.961 215.964 215.483 214.915 212.907 213.601 211.584 211.177 211.243 212.106 211.489 206.684 211.339 209.765 209.634 211.171 208.566 208.213 207.196 208.296 210.872 209.215 209.279 211.353 210.135 210.933 211.425 213.447 212.803 213.716 214.825 213.644 216.325 215.327 216.916 218.665 220.282 220.780 223.285 223.141 224.650 224.391 225.171 228.885 225.936 230.209 228.880 231.477 230.064 233.043 233.675 231.621 234.126 236.380 237.512 237.311 236.893 238.051 237.078 237.882 239.708 239.771 240.880 240.475 241.105 240.390 241.263 243.408 239.265 240.435 239.515 240.378 240.008 238.122 238.818 238.386 237.461 237.364 237.983 236.377 234.622 234.439 235.705 231.778 232.958 229.951 227.931 228.062 228.320 226.673 225.150 224.074 222.884 221.789 221.358 218.179 220.682 219.593 218.471 218.553 215.935 215.816 211.983 214.537 213.150 213.686 213.371 211.612 209.832 211.273 211.483
225.554 222.912 221.499 221.327 219.494 217.269 219.342 218.557 217.967 215.368 215.545 213.410 212.383 214.008 210.678 211.840 214.486 212.662 211.594 211.138 209.866 209.142 212.011 209.257 208.702 210.156 209.333 211.027 208.897 208.877 209.643 212.329 211.919 211.564 211.847 212.680 211.711 214.087 213.576 215.146 215.648 216.767 216.683 219.195 219.366 218.929 221.266 221.272 223.064 224.555 223.931 225.416 226.478 227.381 230.657 229.586 228.722 231.068 231.138 235.474 232.641 232.832 235.711 234.904 235.696 236.453 236.467 237.258 235.588 238.435 239.637 241.343 239.429 240.478 238.742 241.345 242.238 239.905 238.963 239.220 240.722 237.112 239.707 236.601 236.317 237.074 236.936 236.689 236.561 232.837 233.508 233.547 232.144 232.306 230.153 228.867 225.666 225.167 227.370 224.145 224.911 224.367 222.517 222.910 220.032 220.578 218.842 216.367 214.911 216.228 217.588 216.292 214.770 214.478 213.974 212.041 213.343 211.624 210.282 215.064
224.831 222.988 223.125 219.881 218.976 221.812 219.420 216.564 215.103 216.107 214.235 216.312 211.775 214.858 211.589 210.750 211.766 209.744 210.135 209.802 207.269 208.483 210.099 207.079 207.835 208.335 210.550 210.637 211.460 208.734 211.110 210.729 209.260 211.846 211.679 211.410 211.470 211.437 214.611 215.229 215.077 215.720 216.250 218.690 218.853 217.349 220.461 221.815 221.436 222.498 223.274 225.651 225.324 226.674 227.705 230.331 227.540 232.974 229.553 231.523 231.572 233.423 234.613 237.395 236.636 234.955 236.546 236.893 236.367 238.239 238.160 237.563 237.469 239.289 238.386 239.985 239.562 236.989 235.775 238.149 237.030 236.287 236.300 238.489 236.022 238.053 236.150 232.523 234.498 235.066 230.417 230.274 230.880 229.537 231.393 227.462 229.666 225.044 224.794 225.312 224.624 223.270 224.114 223.461 222.756 219.393 219.703 217.483 218.720 213.422 214.671 214.474 213.459 215.317 211.121 211.250 210.274 211.206 209.746 211.613
224.592 220.093 219.198 221.880 220.509 217.273 218.323 216.065 217.743 214.428 214.546 215.168 213.997 214.583 213.238 210.392 211.987 209.895 212.599 212.409 211.578 212.612 210.737 211.413 210.691 210.593 210.600 209.990 211.947 208.652 208.319 209.578 212.768 210.931 210.719 211.174 213.290 213.245 215.379 214.202 216.385 214.973 217.421 221.218 218.124 219.038 221.206 219.702 221.208 221.980 223.821 222.742 226.992 226.301 227.217 227.643 228.626 226.689 231.792 229.953 232.734 232.251 232.843 234.317 236.324 234.723 234.635 236.343 233.201 235.490 235.629 236.629 235.610 238.412 237.105 237.671 237.494 237.015 236.468 238.618 237.817 238.321 235.981 236.109 235.759 234.438 234.249 231.764 231.660 231.324 230.363 231.531 230.692 229.961 228.351 229.054 228.098 226.823 224.866 226.251 222.084 220.672 220.193 222.344 220.150 218.483 215.568 217.285 215.580 213.503 216.602 214.636 215.609 213.296 213.411 211.367 212.455 210.773 211.591 210.766
221.699 222.205 221.543 219.670 219.556 220.004 219.581 217.402 213.843 216.757 217.371 214.216 212.834 213.637 212.971 213.263 210.975 213.403 212.022 209.370 211.551 209.917 210.722 210.195 209.742 210.032 209.170 208.873 209.606 209.730 210.777 210.817 208.977 212.311 211.681 213.236 213.539 213.604 214.552 212.781 217.030 218.188 217.351 216.719 218.944 218.495 221.663 220.003 219.967 221.206 222.147 224.743 224.661 225.879 225.959 228.754 227.984 229.003 231.375 230.570 230.281 231.279 233.568 233.254 232.426 235.274 232.593 232.193 233.973 233.214 235.531 236.041 235.863 235.627 235.129 237.531 234.038 237.184 236.489 235.913 236.298 233.611 236.316 235.372 235.668 231.387 233.645 232.627 229.432 231.159 230.960 229.256 229.936 229.405 227.418 226.748 227.280 224.360 225.307 225.464 222.992 222.638 221.385 221.509 217.899 216.848 217.077 216.594 217.749 217.504 215.862 215.999 213.382 212.632 210.872 213.596 212.374 211.253 209.301 209.361
223.106 221.711 222.239 220.357 218.509 217.167 217.825 219.057 218.762 214.811 215.649 213.534 214.115 209.840 211.946 210.045 213.509 210.888 211.548 210.713 208.800 210.925 211.305 210.151 210.470 211.116 210.496 209.742 208.055 209.167 209.493 211.589 212.608 211.393 212.966 209.355 213.050 211.831 214.942 215.929 216.402 216.673 217.779 219.282 217.247 220.510 219.011 218.539 221.694 222.692 222.966 222.613 224.914 224.701 228.699 226.952 227.772 227.400 229.452 231.420 229.225 230.280 229.025 231.782 234.327 231.453 232.857 232.830 233.753 233.470 234.237 233.549 235.309 236.342 236.172 233.046 236.836 236.039 236.416 233.828 233.944 235.197 236.162 232.571 233.633 233.375 231.940 232.249 230.658 232.201 228.101 229.741 228.071 227.894 226.151 222.895 227.530 225.805 224.652 223.320 222.932 221.391 221.111 221.849 218.658 217.607 220.121 216.573 216.710 215.552 215.805 215.233 214.009 212.141 211.643 212.369 214.007 209.294 210.933 211.295
221.391 221.591 220.436 220.760 221.050 217.970 217.989 217.470 216.453 215.620 212.431 214.495 212.541 212.756 213.286 212.981 211.340 210.935 210.806 209.588 212.429 212.445 209.980 212.002 210.937 208.708 211.106 210.879 210.385 208.628 209.862 208.086 211.092 211.126 210.526 210.790 214.330 211.436 214.648 214.469 216.415 213.633 216.345 218.375 217.390 216.615 216.700 218.927 221.718 223.086 222.092 223.836 224.726 225.002 224.020 226.612 225.259 227.288 228.778 229.770 228.968 231.060 232.097 231.973 231.267 232.160 232.242 232.667 233.815 234.554 233.524 234.608 234.189 234.193 232.916 234.556 233.943 234.352 235.089 234.619 234.364 232.654 231.045 232.144 232.200 232.024 232.938 231.186 231.992 229.247 227.842 229.530 226.516 225.314 225.819 226.167 226.345 224.315 224.630 222.777 220.115 219.983 218.554 219.546 216.570 216.621 216.614 217.966 216.861 215.124 215.183 214.053 217.014 211.272 210.332 209.990 210.151 211.035 212.208 210.515
221.175 220.597 220.289 218.271 219.399 217.910 217.583 217.290 216.679 216.325 213.779 214.796 211.874 210.726 212.281 212.767 212.449 211.941 212.195 208.830 210.021 210.200 209.359 210.584 210.816 210.475 210.269 212.921 210.403 210.501 212.101 213.053 210.132 210.359 213.474 213.608 213.723 212.901 214.479 212.587 213.457 217.216 214.530 216.452 218.030 218.328 217.363 218.644 220.720 220.235 223.387 222.004 225.003 223.555 225.710 225.463 225.699 224.687 227.582 227.605 228.520 228.028 228.091 228.563 230.037 231.662 230.589 230.049 230.690 230.603 230.273 231.931 231.761 232.216 234.919 233.838 234.415 232.684 232.857 231.453 230.130 230.101 231.240 231.903 233.608 230.496 228.355 229.236 229.769 227.283 227.515 228.082 227.021 226.763 225.677 224.914 225.859 224.624 223.165 222.782 221.391 220.682 220.520 219.587 221.640 218.269 217.803 219.164 214.956 215.560 216.322 214.536 213.705 212.277 212.805 211.518 213.171 212.248 210.927 212.333
219.826 219.344 220.560 219.359 217.048 216.871 216.846 215.756 216.157 215.214 215.361 214.189 214.181 212.792 213.305 212.854 212.894 212.140 210.977 211.094 212.457 210.452 210.690 212.353 211.193 211.225 209.422 209.466 210.942 213.227 208.851 209.208 212.081 212.027 210.927 213.487 213.065 212.726 213.653 213.619 215.124 214.504 214.577 215.647 217.516 219.019 217.616 217.820 219.999 221.610 220.543 223.400 221.410 224.625 224.418 222.295 225.497 225.236 225.882 225.811 227.229 226.975 228.388 229.931 230.730 230.830 230.937 230.767 230.331 229.534 232.222 230.729 231.598 229.906 232.059 233.168 231.443 232.531 231.210 231.429 230.501 227.741 230.984 230.823 230.593 231.520 230.206 229.239 227.474 231.110 225.652 226.222 225.522 226.744 225.282 224.894 221.603 222.376 223.528 221.080 219.558 220.576 218.995 219.021 218.786 216.595 217.060 218.072 215.612 215.091 214.138 214.660 214.374 212.286 213.015 214.400 210.177 212.910 212.489 209.407
218.603 219.242 220.895 217.929 218.108 217.616 216.801 218.650 216.111 213.889 215.088 215.011 212.541 213.579 212.248 211.046 211.165 212.853 211.435 209.461 212.023 210.642 207.420 209.500 207.945 209.959 213.931 213.154 211.182 210.003 209.794 210.506 211.910 213.383 212.284 214.037 212.797 210.898 214.167 215.453 215.432 216.549 214.701 216.022 216.935 217.899 218.751 219.834 218.811 218.655 219.992 220.896 221.218 221.258 223.982 224.687 225.288 225.605 225.873 225.240 225.805 227.104 225.056 227.952 225.750 230.603 229.535 228.367 229.357 229.030 231.656 231.323 230.264 229.659 231.008 230.646 230.267 229.653 228.346 228.426 228.999 227.726 228.291 231.214 228.839 229.280 227.389 229.250 227.391 227.722 227.591 226.303 227.529 223.618 223.756 224.148 222.863 222.910 224.321 220.798 220.856 219.307 218.342 216.444 218.657 219.150 216.967 217.783 214.246 215.062 214.592 215.147 213.875 214.017 214.713 211.293 212.113 212.397 210.869 211.843
217.955 218.263 218.583 216.198 220.318 219.430 218.176 217.167 216.749 214.877 214.452 211.870 214.945 213.230 210.748 211.742 212.999 210.208 211.244 209.067 210.864 211.185 208.312 210.144 211.519 210.545 212.735 212.076 212.498 209.808 210.314 212.004 212.445 211.467 212.119 211.553 212.477 213.885 215.517 214.909 215.740 215.250 216.261 217.308 215.612 218.360 218.462 219.506 219.390 218.636 219.480 220.598 218.144 220.699 221.501 222.120 222.121 222.543 223.978 224.053 226.800 225.688 226.035 227.500 226.800 227.217 228.936 228.986 227.868 226.797 227.816 229.335 226.892 228.533 228.895 227.214 230.361 228.612 227.022 227.523 229.030 229.946 228.466 228.087 227.354 229.147 228.424 224.677 226.178 226.399 225.055 225.334 225.097 222.769 224.806 222.953 223.482 222.005 221.021 222.129 220.438 221.273 219.578 220.852 216.847 217.316 215.795 214.897 215.886 213.456 214.591 215.770 214.463 212.812 212.766 213.546 214.217 211.810 211.995 212.197
219.280 219.396 218.786 219.497 216.774 217.058 216.885 215.170 215.170 215.086 212.999 213.716 212.583 212.941 212.403 212.307 213.400 213.761 213.054 210.957 212.090 210.102 212.108 212.228 210.928 211.357 212.274 212.219 210.809 210.719 209.759 211.483 211.394 212.304 213.219 211.242 212.295 213.114 212.024 214.031 214.087 215.494 216.298 216.788 216.158 217.218 217.668 219.140 216.317 218.658 218.581 220.094 221.687 221.236 221.649 221.179 222.835 223.211 222.242 224.570 223.727 222.227 224.833 225.992 226.266 226.212 226.294 227.371 227.500 224.943 226.388 227.471 227.388 228.505 228.758 227.792 227.168 229.536 226.499 227.247 229.564 227.782 227.543 226.612 227.749 229.442 226.129 225.159 226.409 226.881 224.702 222.898 223.813 222.050 223.598 221.765 222.113 221.102 221.457 217.660 219.865 219.190 218.793 216.277 219.019 216.204 217.011 215.406 215.313 214.581 212.806 213.531 215.403 212.212 213.332 210.839 213.842 210.728 210.750 211.707
219.613 217.009 217.958 218.237 217.182 215.837 216.812 217.165 218.144 216.561 212.720 215.832 215.182 214.013 214.163 214.380 212.521 211.161 212.078 212.971 211.393 211.160 210.345 212.369 210.457 211.442 210.856 213.260 212.991 214.598 211.234 211.063 212.698 210.996 212.255 213.883 213.436 214.670 213.137 213.804 214.554 216.072 216.781 217.311 216.447 215.915 216.712 217.653 216.303 217.470 216.991 219.814 220.190 219.314 221.950 221.387 221.564 222.910 222.937 221.710 222.539 222.018 224.740 224.226 225.713 224.115 223.817 226.726 226.609 224.129 227.206 225.272 227.964 226.861 225.613 226.060 226.127 222.854 226.989 225.746 226.850 222.536 226.465 225.461 223.885 227.227 225.611 223.262 223.092 224.362 225.397 223.543 222.043 224.234 221.022 222.822 221.630 220.250 219.238 218.820 218.996 220.174 218.034 216.630 218.761 217.964 216.432 217.361 215.723 217.234 214.604 213.508 213.507 213.837 213.564 212.447 212.239 211.092 211.773 214.113
218.300 216.977 216.932 216.412 216.774 215.530 217.491 214.789 215.097 216.751 214.676 215.862 213.864 214.721 216.064 212.214 213.672 211.570 212.624 211.723 212.510 210.857 209.691 212.775 212.184 213.561 212.295 212.217 211.155 210.639 212.524 211.131 214.283 214.516 213.682 214.712 213.432 213.169 216.917 214.103 216.208 214.099 215.866 216.759 214.157 214.730 216.061 216.867 217.752 217.199 217.620 217.676 218.084 220.131 219.482 219.200 219.478 220.292 219.696 222.177 222.750 221.025 222.260 222.752 224.396 222.824 223.528 222.920 223.175 223.695 228.494 226.061 225.241 225.211 223.117 223.782 225.818 224.915 226.129 224.754 225.279 224.631 224.964 224.592 225.239 223.101 223.204 222.390 222.902 223.154 222.380 219.652 220.781 220.606 220.485 219.734 219.665 220.787 220.010 220.586 216.572 216.852 216.194 218.479 217.729 215.818 215.484 216.074 216.948 216.876 213.947 215.451 213.860 215.693 216.619 213.939 213.785 209.798 213.342 210.476
217.297 218.687 215.418 219.763 215.975 217.216 215.311 216.460 214.630 214.956 211.960 215.601 215.013 213.532 213.346 212.199 212.424 213.408 213.326 213.703 214.089 213.799 213.022 212.893 212.211 213.914 211.580 211.541 212.946 210.909 212.334 211.024 211.947 217.299 211.349 214.681 213.006 212.579 212.416 215.178 214.275 215.031 217.284 214.003 213.404 216.434 218.247 217.149 218.975 219.006 218.420 217.456 218.883 220.422 220.000 219.724 220.528 220.380 221.687 220.734 223.249 222.053 222.065 219.972 219.756 222.322 222.197 225.207 222.181 222.051 224.267 220.986 223.582 221.987 220.239 221.417 223.370 223.498 223.135 222.273 223.328 223.475 223.069 224.782 223.817 221.359 221.466 220.891 221.939 222.732 223.104 221.141 219.913 219.057 218.055 221.739 218.936 218.402 220.849 217.559 217.861 218.136 215.080 215.327 220.477 216.701 213.591 214.929 215.190 215.732 214.607 213.045 214.188 215.270 212.996 212.124 211.996 210.377 214.446 213.220
217.391 217.411 218.409 216.179 214.759 217.362 213.045 215.090 216.653 216.838 214.677 214.433 214.163 213.788 213.777 215.394 214.155 215.468 213.967 212.738 212.755 215.601 212.200 214.118 211.714 213.506 212.435 212.366 211.901 212.098 213.262 214.822 213.756 212.361 214.103 210.732 213.815 216.799 211.435 214.140 215.946 217.264 216.761 214.994 217.774 217.965 215.953 216.742 215.855 216.856 219.175 216.408 219.538 218.815 219.129 218.246 220.154 219.341 219.538 218.094 220.291 220.031 221.740 221.067 221.007 220.648 220.712 220.718 222.561 220.081 220.160 222.321 223.794 222.511 221.927 224.694 222.520 221.423 222.270 223.211 221.453 222.776 221.279 221.731 221.780 218.275 222.540 221.561 221.172 220.635 219.889 221.556 219.678 220.453 217.090 221.240 218.836 218.638 216.772 216.625 217.907 213.165 218.317 215.611 215.257 215.969 217.937 215.648 216.439 213.353 213.899 215.448 212.783 210.790 212.923 213.127 213.144 214.123 213.900 212.490
217.521 216.467 216.524 215.006 216.721 215.300 216.964 213.578 216.422 213.453 215.194 213.152 213.214 215.004 212.027 214.958 216.261 214.460 211.637 214.181 213.211 213.474 213.200 214.476 215.221 213.569 214.894 212.633 216.118 212.161 212.066 213.014 214.540 214.860 211.903 214.212 214.555 217.310 214.039 212.891 212.751 214.719 215.780 215.645 215.493 214.859 215.989 216.312 219.550 216.624 215.652 216.652 217.153 215.099 217.839 218.315 218.495 217.325 218.427 219.287 220.145 219.693 217.924 220.515 221.711 219.684 216.987 221.267 221.625 220.492 220.050 222.006 221.676 220.713 220.552 221.000 222.007 220.904 219.279 219.905 220.773 220.965 219.716 221.202 219.415 221.221 221.931 220.738 219.685 220.087 216.618 220.751 217.724 217.348 217.806 216.894 217.790 217.215 217.246 218.483 217.330 215.877 216.133 215.119 217.107 214.331 214.940 217.202 214.643 214.999 215.220 212.461 214.491 215.271 214.152 214.516 212.582 213.601 213.064 213.355
214.726 215.397 216.546 215.030 216.270 217.288 215.612 215.246 215.717 213.756 214.077 213.259 213.404 216.328 213.258 214.065 213.563 213.373 213.456 213.478 214.085 213.271 214.072 213.378 213.200 213.309 215.564 212.158 213.424 214.461 214.335 212.592 212.536 213.834 215.364 214.969 214.125 213.909 214.187 214.390 213.081 213.235 214.928 217.400 215.609 213.455 214.386 215.759 214.852 216.464 215.516 215.625 215.181 217.397 217.462 217.709 218.205 217.428 219.146 216.698 218.914 217.705 217.756 217.654 219.230 218.914 220.062 217.823 219.214 217.930 219.719 220.807 218.099 220.510 218.076 220.991 219.444 219.897 217.952 221.065 219.022 218.549 220.155 218.040 218.535 218.313 217.730 219.791 220.361 217.172 219.966 219.262 217.421 218.433 219.851 216.621 216.540 215.866 219.268 217.858 215.577 216.159 216.925 215.681 217.163 215.717 216.942 215.724 215.426 214.332 215.277 215.697 212.793 215.157 215.878 215.357 214.666 213.878 212.787 212.914
215.665 214.742 215.974 215.167 215.278 216.932 215.635 216.109 213.229 215.760 214.060 216.761 213.107 213.855 215.605 216.962 212.842 214.213 213.557 216.217 216.709 214.666 215.364 213.587 212.990 214.892 213.794 215.188 214.012 215.857 214.205 214.415 215.567 214.726 216.150 213.953 213.648 215.818 215.440 214.283 213.760 214.350 215.169 215.024 214.168 214.536 216.248 217.012 217.588 215.085 214.841 216.847 215.949 217.287 217.573 216.194 216.588 215.030 215.172 217.846 219.496 215.293 215.665 216.824 218.269 215.394 217.600 219.173 215.108 216.409 218.562 219.065 216.893 218.836 218.922 216.275 217.737 217.185 217.474 218.040 216.496 215.567 216.081 216.110 217.311 218.534 216.810 216.514 216.661 218.017 216.910 217.009 216.090 216.702 216.200 217.842 216.482 217.686 216.701 216.370 213.975 215.596 214.645 216.741 215.875 215.821 215.068 216.691 212.742 215.756 214.382 213.576 213.818 214.503 214.818 215.667 213.571 213.422 215.398 215.472
214.252 214.554 215.667 214.907 215.969 214.254 214.315 218.542 216.258 216.781 215.353 214.099 216.180 216.550 214.517 214.381 215.320 214.525 212.850 215.375 215.499 212.481 216.608 213.194 213.056 213.426 214.452 214.378 212.502 214.622 215.010 213.711 211.829 213.236 213.767 215.489 214.095 215.219 218.068 214.789 214.603 215.942 216.407 216.572 215.096 213.623 212.914 214.185 214.863 213.891 213.625 215.016 214.934 214.842 217.724 216.756 214.157 216.838 215.630 214.898 215.203 219.110 215.838 214.958 215.858 216.970 216.277 215.897 215.059 215.402 214.580 216.252 216.841 216.798 216.191 217.855 216.772 216.984 215.001 215.820 215.715 217.514 216.068 215.998 215.890 217.961 215.453 215.156 216.313 215.904 217.594 217.279 216.241 215.647 215.813 217.346 216.182 216.384 212.709 214.130 215.237 216.126 216.086 215.375 213.090 215.249 214.105 212.422 213.858 214.392 215.052 215.702 214.956 214.704 214.055 214.605 213.266 215.422 214.559 215.770
215.584 214.464 214.810 214.880 214.974 211.887 213.804 217.243 215.058 216.643 214.310 213.110 214.584 214.518 214.015 216.376 216.667 214.133 217.295 216.061 213.560 216.207 215.418 214.995 213.065 215.495 214.057 217.108 213.720 213.180 215.505 213.569 216.743 213.881 215.835 213.785 214.354 215.149 214.137 215.803 214.143 216.675 216.046 213.054 217.379 215.371 213.993 215.332 215.134 215.966 216.018 216.424 213.490 215.317 214.252 213.130 214.041 213.726 215.446 214.630 215.416 214.886 215.148 215.561 214.027 214.804 214.788 214.363 213.789 215.325 215.741 217.204 215.231 215.296 213.678 214.914 216.496 217.387 215.600 216.992 217.033 217.563 215.949 214.315 215.253 216.508 214.371 215.005 214.041 214.362 213.310 216.427 214.225 215.150 215.639 214.663 213.714 214.288 213.739 215.140 214.258 216.340 214.569 215.619 213.875 212.845 214.574 216.129 216.155 216.415 214.487 214.547 215.128 214.570 215.623 215.977 216.104 214.018 216.732 212.684
214.066 213.865 214.519 214.293 216.028 213.814 215.671 213.487 214.861 215.390 216.161 213.639 212.458 217.168 214.057 214.858 215.035 216.947 216.167 216.766 216.939 215.971 215.117 217.004 216.604 215.780 213.217 214.693 215.922 214.812 216.499 218.527 215.454 215.746 216.319 217.384 212.659 214.577 216.836 215.040 212.973 215.631 213.354 215.991 216.015 214.329 213.324 215.286 214.183 214.201 213.780 213.843 213.201 215.322 215.631 213.174 212.603 215.004 215.593 214.647 215.322 214.853 213.940 213.496 212.854 213.627 211.578 215.437 212.294 213.941 214.039 213.475 213.522 212.610 213.052 214.454 214.388 211.955 213.484 211.459 213.486 213.693 211.999 215.383 212.046 215.181 211.759 214.655 211.529 213.258 212.341 214.323 213.017 213.796 214.378 212.958 213.490 214.559 213.173 214.847 212.295 216.934 215.876 212.846 213.699 214.288 215.445 215.721 216.160 216.329 213.635 215.221 214.875 215.835 214.966 213.042 214.635 218.239 215.299 216.747
213.845 213.706 214.189 214.013 215.427 213.968 212.385 215.783 215.474 214.439 214.855 216.040 215.673 214.121 217.013 218.517 215.541 214.384 216.914 217.359 214.658 213.949 214.163 215.202 214.486 215.247 215.251 213.791 216.120 217.363 213.210 215.308 214.994 214.562 215.492 214.069 216.231 214.759 213.849 215.488 215.006 216.500 214.877 214.126 216.756 214.615 214.678 215.880 213.343 213.773 212.848 215.987 212.496 212.073 211.924 215.353 214.354 212.120 211.965 215.546 211.910 212.622 211.633 215.396 211.470 210.542 212.411 212.479 211.710 211.162 209.781 210.879 214.197 209.934 213.460 214.685 213.546 212.402 213.553 213.548 210.456 212.805 210.977 209.730 213.471 211.394 212.757 210.951 213.823 213.408 212.386 211.763 212.097 213.258 212.383 212.051 214.090 213.933 214.855 214.795 212.423 214.116 213.024 212.559 214.483 214.107 215.057 214.150 215.582 214.674 215.280 216.336 217.265 214.806 212.912 213.520 216.954 217.652 216.630 217.452
212.982 212.937 215.322 214.876 214.790 215.048 214.445 212.647 216.164 215.267 214.226 214.659 216.415 214.714 214.265 216.199 216.853 217.041 217.013 216.444 215.924 213.905 216.059 215.529 218.253 215.685 216.668 217.226 214.887 214.802 217.671 217.536 214.016 216.027 217.460 214.786 215.687 215.636 214.962 214.625 211.912 213.592 214.368 214.872 216.597 217.252 215.790 214.194 212.475 213.382 214.726 213.093 213.391 214.440 211.642 211.732 214.205 212.931 213.253 212.287 210.602 213.271 211.074 212.033 212.013 211.768 209.748 211.617 209.401 211.267 210.334 212.574 210.015 210.513 210.476 208.354 210.378 210.617 209.762 210.540 211.106 211.295 211.565 212.252 212.443 210.836 211.681 211.369 210.974 211.060 210.507 212.167 213.234 211.745 211.835 211.482 211.176 211.608 213.302 211.275 215.350 214.572 213.843 213.243 215.209 213.906 216.791 214.476 215.340 213.954 216.393 215.831 215.973 217.500 214.593 213.541 213.489 215.094 215.586 215.630
213.535 214.476 212.556 215.123 213.244 212.953 215.219 215.583 215.580 213.783 216.813 215.838 214.610 215.750 216.096 215.964 215.451 218.245 215.786 216.907 216.479 216.916 214.742 219.066 218.497 216.669 218.073 216.803 217.629 216.500 214.715 215.763 215.697 215.446 213.757 215.736 216.543 216.155 214.586 217.334 214.925 215.414 214.532 213.612 214.512 213.015 212.596 211.452 213.640 213.924 212.912 212.277 212.248 213.237 211.443 211.744 212.017 211.236 211.552 211.737 210.440 212.841 209.616 210.253 210.391 209.902 208.491 209.735 208.471 209.305 210.037 210.234 209.269 208.698 211.751 209.103 211.360 208.351 209.576 211.204 208.389 208.102 210.725 211.553 210.782 210.478 209.485 210.671 211.445 210.152 208.880 212.282 209.810 209.819 211.051 213.098 210.536 212.326 214.685 213.217 212.724 212.266 211.625 215.291 212.341 214.288 215.490 213.876 214.535 216.171 215.316 216.774 216.855 217.444 214.198 216.362 216.224 216.032 214.372 216.271
213.956 213.889 212.234 213.220 213.497 214.858 213.386 213.702 213.058 215.889 217.413 215.910 216.369 216.806 214.744 216.965 218.182 217.771 216.473 215.927 216.127 218.375 216.352 217.240 217.408 216.807 216.067 217.616 216.182 216.503 218.255 217.658 214.172 215.268 217.312 215.188 217.013 217.113 216.899 217.508 213.727 213.955 214.164 213.932 215.322 214.495 212.706 212.857 211.676 212.384 210.945 214.425 212.888 211.241 211.191 212.012 210.796 212.018 210.486 212.735 210.577 208.279 208.159 208.519 211.012 208.391 209.687 206.778 208.940 206.937 207.546 208.010 206.323 210.655 206.558 207.284 209.872 209.007 205.101 208.506 209.355 207.005 208.321 207.580 207.718 210.794 210.107 208.174 207.909 210.464 210.085 209.675 210.594 209.035 209.960 210.246 212.857 211.663 210.789 211.394 213.835 213.279 212.521 213.022 214.600 213.655 213.993 213.748 211.946 215.761 215.113 216.508 219.415 215.557 216.851 215.907 215.625 215.696 216.342 216.942
214.113 212.842 212.093 214.262 212.376 214.609 214.380 213.796 215.272 216.366 216.086 213.395 213.789 215.966 215.978 214.849 217.617 217.480 218.493 217.541 219.356 216.653 217.035 218.323 218.035 215.799 216.652 218.248 217.643 216.562 216.977 217.022 216.811 217.444 217.497 215.613 219.041 216.441 215.689 217.794 215.317 213.631 213.161 213.702 213.336 211.685 212.945 212.050 214.224 212.891 211.030 212.878 211.098 208.629 210.606 211.995 210.062 208.924 209.431 208.353 209.445 208.808 207.839 208.937 209.742 207.926 208.858 208.145 206.794 206.935 208.507 207.131 207.730 204.696 207.405 204.451 208.825 206.918 207.643 205.890 206.699 205.610 205.902 207.441 206.961 207.209 207.573 209.616 209.438 210.750 208.520 208.408 209.674 210.603 208.379 211.129 210.352 211.607 211.760 211.412 211.164 212.129 214.078 211.098 213.666 213.619 213.899 214.680 215.264 215.056 216.899 215.274 218.455 213.892 218.262 216.149 215.332 215.875 216.501 217.421
211.461 213.511 212.188 212.417 212.746 214.188 213.995 216.111 213.998 214.579 214.779 214.718 215.450 215.166 213.861 214.659 215.565 214.005 216.266 218.126 217.854 215.696 215.886 217.098 216.834 218.464 217.923 218.030 217.351 218.687 217.712 220.476 218.124 217.280 216.622 215.970 215.206 216.369 216.492 217.414 215.630 216.035 214.976 213.993 214.520 214.202 212.823 212.416 212.164 209.471 211.872 209.406 213.447 210.130 210.252 209.964 207.094 210.620 207.701 209.415 209.382 208.570 203.719 205.500 206.063 204.837 206.062 207.802 207.223 205.075 204.105 206.251 206.127 204.842 204.091 207.011 207.204 206.721 206.228 204.833 205.784 204.249 207.636 204.602 205.182 205.998 206.386 208.638 208.149 206.498 208.170 208.459 210.282 206.837 208.513 208.313 210.195 211.458 210.520 213.824 210.405 212.152 211.562 211.066 212.640 213.617 213.095 213.488 214.596 214.181 216.485 216.411 216.051 217.513 213.816 215.607 218.563 216.122 218.562 218.094
211.203 211.288 210.540 210.592 210.772 213.843 213.701 214.545 213.191 215.019 216.672 214.780 215.445 215.925 219.194 218.340 219.595 220.682 217.370 218.236 215.103 218.259 217.598 218.351 218.480 215.697 218.720 217.720 216.632 217.334 218.915 216.966 219.301 218.008 217.107 215.696 215.504 217.630 215.913 215.871 215.537 215.865 215.346 213.586 213.977 212.947 213.377 210.426 211.556 212.960 209.349 209.602 210.234 208.016 209.145 208.983 209.119 207.976 207.707 206.422 206.880 206.536 206.448 206.456 206.164 205.809 205.035 204.582 203.660 204.904 205.448 203.230 204.488 203.496 203.387 202.351 203.278 204.409 204.318 204.841 203.122 201.400 205.153 204.434 205.549 207.239 206.571 202.973 205.282 205.823 208.555 206.043 206.954 209.108 205.986 207.930 207.351 208.165 210.519 210.458 210.697 211.255 211.249 212.157 213.318 212.173 213.752 213.434 215.576 216.330 216.026 216.847 215.353 215.868 216.828 216.507 217.858 217.159 216.018 216.518
210.778 213.885 211.628 210.092 212.785 212.128 211.830 217.163 217.339 214.781 215.216 215.319 217.066 217.451 218.098 215.739 217.026 218.616 218.049 216.246 218.248 219.622 215.866 220.485 218.439 220.476 219.822 219.051 218.406 218.194 217.406 218.263 218.291 215.783 216.623 214.164 214.830 215.437 216.630 215.658 215.366 214.244 212.988 214.937 214.296 211.523 212.086 212.414 210.125 209.942 210.964 210.071 210.594 208.551 209.204 208.576 209.795 206.050 206.472 204.885 206.436 206.157 206.945 204.308 205.249 204.189 205.707 203.435 202.918 203.991 202.674 201.788 200.345 203.029 203.933 202.551 203.641 201.990 203.460 203.707 202.305 201.265 202.851 203.432 204.537 201.581 206.058 205.323 204.644 204.037 204.960 206.674 207.115 207.494 205.586 207.436 208.452 208.723 208.728 210.195 212.010 209.467 213.047 210.876 211.398 211.817 214.485 214.581 215.767 213.946 213.888 218.312 216.788 213.456 215.550 217.206 219.205 219.989 216.619 218.952
209.784 210.224 210.645 210.217 211.158 212.367 213.889 212.154 216.118 214.388 216.284 214.567 214.725 217.947 217.648 214.907 218.216 215.924 218.707 219.333 218.575 218.328 218.632 218.858 217.971 219.526 218.248 216.816 219.221 220.905 219.865 218.165 217.245 217.263 219.248 218.222 215.895 216.863 218.012 215.856 215.469 214.164 212.311 214.935 214.131 213.701 213.821 211.623 210.666 211.139 208.543 207.083 208.463 207.571 206.716 207.367 207.601 205.414 203.241 203.126 203.621 204.021 203.840 204.066 205.584 201.532 203.683 201.923 202.099 201.266 202.801 202.364 203.032 203.680 199.469 200.959 202.208 202.402 201.939 200.554 204.058 200.651 203.145 201.730 202.195 203.930 202.183 204.535 204.090 203.127 204.750 205.594 206.611 207.631 205.118 206.371 206.955 206.686 211.348 208.961 209.720 210.145 210.131 212.875 212.492 212.035 213.001 214.392 214.776 215.936 216.902 215.199 215.034 216.049 217.152 216.599 218.034 216.460 218.148 218.817
208.526 211.079 212.765 207.671 211.020 212.338 214.072 212.488 214.454 216.506 215.653 215.112 215.539 216.971 217.631 217.920 217.823 215.504 217.393 218.259 219.046 219.667 218.388 220.094 221.190 219.932 220.250 218.734 217.937 219.593 219.297 219.901 217.968 216.849 216.549 217.706 214.647 218.198 215.665 215.699 214.884 216.597 212.574 214.488 213.565 213.907 212.928 210.017 208.717 207.443 209.048 209.391 208.382 207.094 207.588 204.661 207.335 207.033 206.174 205.049 205.782 201.442 201.439 202.306 201.874 201.089 201.772 200.448 202.540 200.394 197.216 199.413 198.921 197.915 200.802 198.409 197.360 199.184 202.014 199.978 202.411 201.125 202.815 201.675 201.900 197.872 200.167 200.557 202.322 204.322 204.534 204.876 202.299 203.955 205.525 206.963 207.113 206.415 206.327 209.946 208.131 209.765 210.597 211.765 210.874 210.916 212.728 212.459 214.267 212.758 214.636 214.058 218.726 214.297 216.276 216.897 216.949 216.383 217.061 218.257
210.701 211.160 212.465 210.299 211.830 213.875 213.588 213.813 214.261 215.758 214.606 216.173 215.291 217.685 217.886 217.573 216.331 218.151 220.582 218.173 219.470 217.096 218.076 219.436 220.643 220.567 218.795 221.794 215.949 217.367 220.345 220.387 220.669 217.159 216.160 215.698 215.914 217.197 215.701 215.203 215.930 214.348 214.252 215.269 211.969 212.330 210.621 211.832 208.822 208.449 209.756 205.773 209.869 207.732 206.092 205.233 205.679 204.941 202.620 203.451 201.664 201.568 201.679 201.331 200.425 200.277 199.511 199.296 201.304 200.880 197.797 196.035 199.570 200.757 198.136 198.869 198.457 198.903 197.972 198.723 198.640 198.813 199.634 198.024 201.430 200.563 201.099 200.421 199.274 202.117 202.198 200.343 205.320 206.347 204.735 206.304 208.184 207.775 204.146 209.838 206.710 209.066 212.232 209.947 209.741 212.079 212.480 210.820 215.838 214.558 214.947 215.742 216.298 218.279 216.819 216.715 218.421 218.537 219.324 217.690
208.997 209.838 208.587 211.190 211.205 213.665 214.647 213.649 212.501 214.449 214.001 214.648 217.710 217.360 216.771 216.284 218.226 219.983 219.386 219.228 219.496 221.055 220.611 219.895 217.204 220.627 219.992 219.650 220.971 218.472 219.608 219.154 216.954 218.138 218.184 218.959 217.853 216.703 217.143 213.138 214.608 213.592 214.544 215.405 213.517 213.165 212.293 212.560 208.535 209.771 207.444 207.174 207.922 207.383 205.534 206.312 204.300 203.514 203.070 202.507 203.224 202.553 200.256 200.010 199.181 199.978 199.347 199.150 196.916 198.300 196.991 196.268 197.415 196.853 197.776 197.730 197.153 197.889 197.723 197.447 196.752 199.141 199.347 199.814 197.762 198.162 200.021 201.276 200.785 202.614 200.634 203.112 200.755 202.716 203.060 205.727 204.967 206.388 208.125 207.063 209.601 208.086 211.486 209.457 209.902 212.500 214.324 211.194 215.142 215.981 215.588 214.072 215.034 217.330 214.579 218.979 220.170 216.848 217.352 219.871
207.154 209.559 208.961 209.639 210.837 212.516 213.165 213.057 215.475 216.304 216.038 214.001 215.459 216.531 217.901 219.339 217.440 220.061 217.461 219.585 218.931 219.356 221.325 219.496 220.137 222.134 220.342 218.292 218.535 219.081 219.746 219.540 216.842 217.187 216.616 217.716 217.734 216.523 216.846 215.447 215.178 216.212 214.747 212.483 212.030 213.101 210.960 209.438 210.056 207.243 208.278 206.656 206.913 208.418 205.324 203.019 201.527 203.046 201.877 199.930 200.259 200.313 198.394 199.022 199.291 197.392 199.434 196.377 195.745 198.103 196.022 195.459 195.042 196.567 195.181 195.361 193.781 194.358 195.665 194.600 195.934 198.081 197.207 198.720 196.624 198.950 198.162 200.103 198.375 200.433 202.050 201.749 202.507 202.496 200.656 203.215 204.067 206.827 206.617 205.997 209.100 209.224 207.525 211.823 211.461 215.102 213.703 211.212 215.179 214.708 214.583 216.046 217.013 216.333 216.135 218.483 218.597 217.101 220.463 218.849
209.774 210.076 208.897 210.850 209.398 211.639 209.878 211.535 213.531 215.048 216.008 216.989 217.436 216.187 217.166 216.997 218.261 216.453 217.998 221.031 219.782 218.970 220.806 220.439 220.109 219.744 218.929 220.058 220.112 219.831 221.394 219.330 219.380 220.190 219.259 215.290 217.194 215.500 215.245 216.759 216.922 214.826 210.758 212.306 211.772 210.809 212.605 210.441 209.907 208.357 208.572 206.478 204.279 205.080 203.449 201.668 200.386 201.323 201.006 202.872 199.216 198.468 198.647 199.167 196.106 196.842 198.264 198.311 195.006 193.521 195.172 194.847 196.265 195.909 194.813 193.686 195.152 193.775 193.796 195.062 197.768 197.805 197.726 194.326 197.468 196.221 198.241 199.267 199.606 198.538 198.747 201.511 202.869 201.125 201.714 203.376 203.614 206.263 207.161 207.681 206.724 207.193 208.670 210.018 211.687 211.934 211.751 213.611 214.597 214.163 213.790 216.193 217.396 217.629 216.059 218.334 218.381 218.387 218.854 218.695
206.208 208.229 208.688 209.675 208.941 211.427 213.871 211.423 213.579 214.177 215.222 216.438 215.458 217.849 218.141 217.494 219.102 220.240 220.884 219.255 220.804 220.023 219.279 223.260 221.732 221.437 220.146 220.665 219.728 222.403 219.193 219.638 220.310 218.708 219.544 218.281 217.348 216.882 213.865 216.786 215.706 214.738 213.771 211.561 212.105 210.108 209.716 208.145 208.291 209.141 207.592 205.096 204.314 205.852 203.423 203.949 204.116 202.576 199.310 197.137 201.105 196.858 196.157 196.623 196.301 196.926 194.916 194.234 195.937 193.430 197.593 192.388 193.977 195.174 193.717 191.701 193.650 195.073 193.022 192.126 194.262 192.027 195.520 196.210 195.924 194.830 198.058 198.948 199.311 198.041 199.809 199.045 202.094 200.832 200.660 202.655 204.396 204.421 205.171 205.036 207.147 207.774 208.805 209.354 210.269 210.167 214.154 210.755 213.752 215.607 212.785 213.511 217.065 219.895 218.636 217.364 217.653 218.030 217.560 218.674
207.588 206.996 208.707 210.109 209.181 210.369 211.875 211.483 213.360 214.772 214.768 213.414 216.415 216.466 217.249 216.408 218.389 218.626 218.461 218.577 219.602 217.748 220.525 219.754 221.691 218.259 219.862 220.718 220.539 219.510 220.947 218.924 219.754 218.681 217.982 216.867 216.436 216.011 216.450 214.684 213.448 214.684 213.379 213.086 211.721 212.799 210.833 209.473 208.815 208.534 206.667 206.469 204.489 205.723 202.807 198.291 202.118 200.135 199.547 199.814 194.956 195.422 196.722 194.696 196.436 195.779 194.157 195.224 191.510 193.370 194.247 194.574 193.421 194.405 193.032 192.349 192.926 195.542 195.374 193.423 193.810 194.128 192.103 193.645 194.886 194.274 195.476 194.855 196.803 198.745 198.338 199.965 199.549 199.580 201.488 200.048 202.103 203.462 204.051 206.039 205.549 208.440 209.203 209.235 209.164 209.439 212.355 212.109 216.427 214.987 216.365 214.300 215.963 216.078 214.385 218.062 217.772 218.361 219.567 220.669
206.649 208.927 206.992 209.672 208.687 210.172 212.627 212.777 213.274 214.044 215.327 216.773 216.681 216.090 218.191 217.734 218.605 218.938 220.295 219.804 219.403 218.426 218.744 220.862 219.761 221.585 220.582 220.772 220.248 223.116 220.987 220.159 219.978 215.928 217.251 219.202 218.730 215.697 213.484 213.719 215.156 213.546 214.279 211.891 211.649 211.090 209.445 208.167 207.050 206.646 206.001 206.221 204.207 202.580 201.054 200.538 201.069 199.892 200.532 198.001 196.908 198.346 197.166 196.771 193.289 194.120 193.950 193.451 190.011 192.484 192.094 193.166 191.398 191.598 191.230 190.108 192.199 193.775 190.530 193.685 194.149 190.800 191.260 192.265 192.544 193.339 193.513 194.937 196.533 197.636 197.170 196.986 199.599 200.500 199.667 201.942 201.022 202.391 204.256 204.747 207.270 206.674 208.067 210.025 207.736 211.223 212.697 211.905 214.277 212.439 213.461 213.622 217.824 215.533 217.791 215.715 219.351 217.065 218.236 216.379
203.879 207.516 205.642 210.169 211.829 209.867 209.328 211.401 212.999 211.053 213.509 215.244 216.282 214.145 217.002 217.777 219.535 219.040 220.397 220.166 218.772 223.439 221.101 220.740 220.057 222.462 220.629 221.143 220.556 219.916 217.887 218.792 221.258 218.991 217.369 216.573 216.052 215.938 215.588 216.857 214.762 215.620 210.675 211.655 208.646 207.450 209.465 206.065 207.403 205.303 206.849 205.960 201.602 203.540 201.661 201.405 199.232 200.509 199.369 197.280 194.596 192.858 196.307 194.654 192.023 192.033 195.887 190.833 192.187 193.002 193.949 191.215 191.220 188.998 190.943 190.293 189.022 189.032 192.163 192.131 194.388 190.980 189.267 194.741 193.478 195.363 192.964 193.955 197.005 194.853 196.511 197.358 199.315 200.348 198.956 201.977 201.451 202.529 203.792 205.717 205.382 207.056 206.453 206.571 207.884 210.500 211.183 212.144 211.133 212.656 214.436 216.022 216.488 216.122 216.278 215.862 217.612 220.175 218.896 218.854
205.347 209.377 206.385 206.718 206.770 207.306 211.233 212.043 211.742 213.834 214.883 213.971 215.993 217.409 215.164 217.425 218.251 216.412 222.099 220.809 222.185 218.293 220.239 221.919 219.950 223.185 219.202 220.432 219.857 218.047 219.526 219.491 217.769 218.057 219.349 218.682 217.589 217.260 217.292 214.734 213.290 213.494 212.716 210.840 211.048 210.219 210.209 206.772 208.514 205.760 203.282 205.392 203.709 202.255 199.729 201.253 197.999 197.051 197.411 197.836 195.892 195.219 193.207 194.793 192.551 193.151 195.343 191.622 189.629 188.741 188.969 188.662 190.023 191.187 189.466 189.044 190.221 188.492 189.393 191.037 191.676 190.051 190.436 190.738 192.206 194.289 193.077 192.205 195.667 196.420 197.278 197.693 197.052 197.092 199.960 199.836 201.280 203.711 200.816 201.908 203.195 205.107 206.816 208.307 207.873 211.228 210.355 212.547 214.530 214.736 213.785 214.853 216.294 217.385 215.570 216.255 217.441 219.996 219.371 219.371
202.736 203.796 206.951 206.173 209.669 208.382 210.615 212.229 212.911 213.060 216.588 214.622 216.010 215.782 218.124 218.985 219.527 218.925 220.199 218.167 219.290 220.864 217.536 218.436 221.380 220.770 220.177 220.157 222.105 220.610 219.313 217.592 219.168 217.146 217.802 216.541 218.432 215.312 215.443 216.475 211.169 212.449 210.250 213.306 210.945 209.366 208.706 208.478 207.252 205.686 205.716 204.009 204.967 200.186 200.138 200.539 199.661 197.080 198.461 197.123 197.252 193.997 195.084 192.765 192.659 192.540 190.491 190.116 192.229 188.448 189.995 190.700 190.681 188.434 187.298 189.893 187.868 188.640 187.885 187.267 188.523 189.287 187.812 192.217 190.654 193.561 193.585 192.128 193.499 193.731 195.060 196.036 197.266 198.220 198.815 198.799 198.601 201.778 202.252 204.322 203.754 205.840 205.336 207.992 208.170 209.987 213.618 212.349 212.110 213.466 213.991 214.702 215.588 216.233 216.879 218.734 219.270 220.717 219.633 219.984
206.955 203.310 206.349 207.702 208.897 208.334 209.612 209.262 211.306 210.512 214.644 214.272 214.032 217.709 216.675 216.118 218.461 217.823 216.536 219.387 221.497 217.836 219.621 221.169 220.775 221.544 220.117 221.917 220.178 219.828 220.135 218.950 218.501 217.854 216.887 216.422 215.042 216.663 215.632 212.097 213.127 212.861 210.694 211.499 209.339 209.104 206.933 207.306 206.236 207.802 205.895 203.161 202.001 200.998 200.218 196.292 197.888 197.748 196.108 193.727 192.478 191.310 194.695 192.885 192.938 190.313 189.203 187.671 189.547 186.967 187.372 189.474 189.623 187.365 188.629 187.720 188.162 186.096 188.185 188.361 188.832 189.168 189.264 190.249 189.190 191.123 190.246 192.146 192.210 192.663 193.632 194.508 197.042 196.136 198.403 199.558 202.564 202.101 200.824 201.547 204.109 205.624 205.287 208.251 205.804 206.623 209.168 211.753 213.037 212.934 215.439 215.090 215.099 217.846 217.110 216.367 218.299 217.154 220.235 219.034
201.386 206.133 206.121 206.072 207.911 209.545 209.684 210.975 212.926 212.043 213.406 216.420 214.684 214.966 216.595 218.318 216.779 217.989 218.009 221.281 221.018 220.233 221.431 218.553 219.390 220.691 221.908 218.421 220.441 219.459 219.164 219.296 217.418 219.997 217.044 217.551 215.137 214.932 212.908 216.010 216.605 212.635 212.081 213.138 208.956 209.067 206.883 207.713 206.188 205.925 204.797 201.226 200.714 200.668 200.093 198.251 198.131 197.381 194.958 194.606 193.183 191.437 193.327 193.552 190.419 192.074 191.346 188.149 187.979 187.312 188.770 188.922 186.478 185.080 186.902 188.327 187.299 186.926 185.102 188.060 187.219 188.013 188.538 188.312 188.260 190.131 191.302 193.408 191.750 191.618 195.960 195.865 194.585 196.129 197.489 200.136 199.405 202.183 201.780 201.654 203.843 202.623 204.936 207.467 206.789 208.386 208.253 210.761 209.628 212.157 214.375 213.650 216.181 216.324 217.299 216.303 217.693 217.073 217.905 218.605
203.728 206.038 203.608 208.091 204.557 205.877 211.465 211.844 211.564 212.527 213.190 211.354 215.632 214.982 213.697 217.535 218.412 219.693 219.838 218.682 220.189 219.626 220.085 222.315 219.790 217.198 219.626 218.212 218.670 221.396 219.886 218.060 218.371 219.294 217.765 218.987 215.058 215.867 214.941 212.922 213.551 213.087 212.748 207.953 209.552 209.109 208.780 206.758 205.284 203.329 204.829 201.899 202.766 200.012 199.189 196.820 195.179 196.138 194.614 195.509 191.359 190.570 192.619 189.498 188.530 186.667 187.462 188.720 188.633 184.832 187.124 185.258 185.316 186.719 185.679 186.197 186.638 186.714 186.558 187.436 186.083 185.962 186.463 187.998 187.562 189.378 189.597 192.317 190.112 193.530 193.786 196.583 194.007 196.389 196.047 197.270 199.113 200.932 202.633 201.529 202.191 204.247 206.514 206.977 208.109 209.468 209.399 211.074 213.761 212.912 212.369 213.526 214.510 215.909 217.004 215.081 216.619 217.584 217.317 216.548
201.051 204.884 203.130 207.700 206.907 208.073 211.171 212.277 209.486 213.072 213.486 212.761 214.031 214.092 217.926 219.763 215.468 216.806 218.057 217.553 220.352 219.658 219.302 217.766 217.947 219.926 217.538 220.756 219.037 220.599 219.441 219.411 218.748 216.959 216.473 216.140 216.082 216.156 214.170 215.232 212.237 210.462 210.014 209.168 210.650 208.921 207.351 205.699 205.058 202.161 205.496 202.139 201.620 200.723 198.170 197.010 195.011 195.047 193.949 190.996 192.618 190.001 190.390 192.599 191.201 186.690 188.079 187.722 188.697 188.785 186.035 185.058 185.923 185.888 183.001 185.515 184.695 187.288 186.203 186.001 187.004 186.181 186.998 187.713 185.680 189.523 190.354 190.750 191.959 190.049 192.566 192.997 193.875 193.672 195.019 197.004 196.897 198.827 198.929 201.980 204.955 204.092 204.571 204.089 205.958 208.652 209.087 209.608 208.609 210.442 213.153 212.349 215.357 215.269 214.679 218.735 214.094 217.179 216.394 218.201
202.615 204.685 204.674 205.012 206.637 205.931 208.294 210.421 210.811 212.241 211.788 213.921 213.865 213.702 213.642 213.392 215.749 216.805 218.095 217.380 217.270 219.450 219.838 220.073 220.036 218.878 220.088 220.056 220.434 218.739 217.466 219.624 219.080 217.208 214.201 215.197 216.757 213.979 213.356 214.492 212.464 211.440 209.598 209.858 208.675 208.208 204.213 206.744 206.432 203.724 201.552 202.354 201.326 197.859 197.554 196.817 194.446 194.364 194.640 195.057 189.486 191.554 188.205 188.454 189.226 186.530 187.575 186.042 186.937 183.998 187.678 183.819 183.929 183.068 186.013 184.908 184.539 186.336 183.311 183.880 185.618 184.686 185.716 186.359 186.816 188.100 187.113 190.450 189.987 189.934 191.023 192.912 193.393 195.140 197.265 196.567 195.729 199.099 199.975 201.076 201.803 201.175 203.898 205.520 206.194 209.333 210.541 207.189 212.851 210.028 211.814 216.581 215.997 215.992 214.328 216.398 217.510 216.341 218.428 216.788
203.214 202.576 202.745 206.541 206.972 208.795 206.415 208.348 209.962 209.078 212.099 212.927 213.417 214.358 213.396 216.608 218.195 215.496 216.185 218.047 217.007 217.667 218.497 217.492 217.237 220.418 217.979 220.162 217.976 219.520 217.812 216.192 218.150 216.875 215.630 218.475 217.292 213.054 213.515 212.325 210.901 211.597 210.993 210.354 206.608 207.642 207.410 202.340 203.278 201.619 202.334 198.593 199.153 197.891 196.108 195.939 193.014 192.496 191.750 192.874 192.682 189.853 188.785 186.564 186.043 187.268 187.753 185.378 184.507 184.208 185.286 185.754 183.978 183.384 184.016 182.998 183.654 185.196 184.580 182.397 186.947 188.408 183.637 185.355 187.225 188.613 185.576 190.536 190.796 190.979 190.947 189.682 193.132 192.973 195.405 195.483 195.597 200.665 202.396 198.563 201.818 201.325 204.638 203.732 206.500 206.333 208.840 206.874 210.616 211.304 212.468 213.051 215.349 216.010 214.453 215.924 215.531 216.465 219.719 216.832
202.058 204.083 204.120 205.717 204.196 206.056 206.591 210.362 209.504 209.664 211.449 213.791 211.695 215.021 214.972 215.281 216.562 215.869 215.980 215.906 218.453 216.563 217.870 217.781 219.978 215.719 218.399 218.746 218.841 218.268 219.084 217.475 216.640 216.947 216.498 215.777 215.259 215.399 214.942 211.109 210.548 213.103 209.157 206.094 207.402 207.004 206.849 204.835 203.955 202.410 202.324 197.988 198.830 198.018 196.801 196.883 192.934 194.904 193.373 190.044 190.279 189.515 186.147 187.968 186.501 185.805 183.561 185.672 186.434 185.948 185.439 184.169 184.519 181.588 182.521 182.882 183.184 182.601 183.279 184.689 182.409 185.050 184.718 185.799 186.116 186.890 186.813 189.132 190.015 190.405 189.526 191.134 192.644 195.709 195.300 196.102 197.939 196.117 199.476 196.394 200.392 202.303 201.470 201.537 203.736 207.008 208.006 208.998 209.375 211.777 212.126 211.685 213.197 216.341 214.140 214.036 214.460 214.281 215.573 219.161
201.217 202.208 203.668 203.031 204.450 206.133 208.784 207.554 207.500 209.022 212.776 211.810 211.265 213.925 215.206 214.059 214.864 215.030 214.755 216.682 218.400 218.579 218.007 216.594 218.532 219.631 219.677 217.621 217.021 219.016 217.704 218.895 217.822 217.570 215.704 213.588 214.858 213.289 213.546 211.737 211.802 209.402 209.265 209.346 208.818 204.571 205.332 204.186 203.006 201.630 200.721 198.871 198.862 198.861 194.110 196.651 192.349 192.401 190.769 191.658 189.650 189.716 185.880 187.361 187.661 185.944 184.107 184.838 186.162 184.928 184.869 182.034 182.824 181.990 182.358 181.388 181.736 184.252 181.400 183.907 183.219 183.094 185.098 184.967 186.919 188.439 187.454 186.974 187.478 187.084 190.023 190.146 194.436 192.191 193.129 193.810 195.907 196.452 196.141 200.695 201.068 203.613 203.576 203.895 206.121 206.021 208.482 208.173 209.494 208.006 210.589 212.379 212.977 213.529 215.753 216.479 214.190 216.352 217.353 219.739
